
-38.00	45.00	-104.00	108.00	109.00	14.00	-20.00
-36.00	48.00	-46.00	99.00	78.00	15.00	13.00
-49.00	17.00	28.00	55.00	50.00	10.00	-4.00
-51.00	-15.00	14.00	3.00	34.00	-4.00	-16.00
-50.00	-57.00	46.00	-25.00	7.00	-10.00	-27.00
-32.00	-51.00	-5.00	-80.00	-16.00	-13.00	-19.00
-17.00	-10.00	86.00	-104.00	-40.00	-11.00	-19.00
-11.00	50.00	188.00	-66.00	-48.00	-20.00	-6.00
-18.00	88.00	250.00	22.00	-57.00	-23.00	14.00
-12.00	74.00	172.00	104.00	-77.00	-5.00	20.00
-8.00	46.00	7.00	65.00	-117.00	-1.00	22.00
2.00	39.00	113.00	78.00	-160.00	0.00	49.00
-1.00	26.00	189.00	64.00	-172.00	6.00	51.00
-11.00	19.00	354.00	70.00	-140.00	0.00	49.00
-13.00	5.00	456.00	75.00	-114.00	9.00	31.00
-4.00	1.00	452.00	127.00	-91.00	0.00	39.00
-1.00	19.00	159.00	117.00	-86.00	-8.00	46.00
-11.00	11.00	-55.00	73.00	-125.00	-10.00	38.00
-21.00	5.00	-131.00	14.00	-163.00	27.00	18.00
-30.00	16.00	-276.00	-121.00	-180.00	32.00	26.00
-38.00	7.00	-301.00	-108.00	-176.00	13.00	57.00
-27.00	18.00	-263.00	-23.00	-174.00	-4.00	79.00
-9.00	3.00	-102.00	-18.00	-174.00	6.00	72.00
0.00	-13.00	16.00	-81.00	-185.00	23.00	59.00
4.00	-12.00	40.00	-97.00	-195.00	19.00	65.00
3.00	-6.00	-70.00	-80.00	-203.00	21.00	72.00
-7.00	24.00	-290.00	-67.00	-203.00	21.00	71.00
-17.00	62.00	-381.00	-64.00	-191.00	8.00	71.00
-18.00	50.00	-419.00	-93.00	-174.00	9.00	69.00
-28.00	31.00	-346.00	-63.00	-174.00	1.00	57.00
-32.00	24.00	-285.00	5.00	-189.00	9.00	69.00
-35.00	19.00	-261.00	-8.00	-203.00	29.00	60.00
-30.00	38.00	-249.00	-62.00	-200.00	38.00	38.00
-21.00	23.00	-142.00	-77.00	-199.00	29.00	51.00
-5.00	22.00	-27.00	-57.00	-161.00	2.00	63.00
21.00	14.00	133.00	14.00	-128.00	-18.00	57.00
29.00	4.00	190.00	-6.00	-101.00	-26.00	51.00
16.00	-3.00	184.00	-41.00	-86.00	-28.00	58.00
10.00	-21.00	199.00	-72.00	-99.00	-12.00	42.00
10.00	-27.00	87.00	-100.00	-96.00	4.00	28.00
16.00	-35.00	17.00	-44.00	-82.00	-4.00	22.00
16.00	-9.00	-40.00	-21.00	-79.00	-5.00	24.00
5.00	-10.00	-138.00	1.00	-70.00	0.00	23.00
4.00	-34.00	-52.00	-2.00	-81.00	4.00	21.00
-1.00	-55.00	112.00	24.00	-77.00	8.00	13.00
-9.00	-33.00	205.00	160.00	-68.00	18.00	-7.00
-14.00	-34.00	157.00	254.00	-48.00	28.00	-14.00
-18.00	-12.00	56.00	254.00	-39.00	41.00	-25.00
-8.00	46.00	73.00	226.00	-37.00	46.00	-40.00
-10.00	71.00	14.00	161.00	-36.00	35.00	-34.00
-20.00	42.00	-239.00	55.00	-29.00	22.00	-23.00
-46.00	50.00	-296.00	-13.00	-4.00	-17.00	4.00
-49.00	42.00	-430.00	-190.00	18.00	-22.00	0.00
-24.00	57.00	-420.00	-265.00	14.00	3.00	-30.00
-9.00	17.00	-246.00	-165.00	4.00	-2.00	-41.00
-3.00	17.00	2.00	-75.00	2.00	-46.00	-40.00
2.00	11.00	-12.00	-56.00	9.00	-46.00	-20.00
-2.00	14.00	21.00	-72.00	-8.00	-19.00	-37.00
-3.00	14.00	61.00	-67.00	-16.00	-27.00	-44.00
16.00	11.00	378.00	8.00	-23.00	-22.00	-38.00
32.00	-7.00	451.00	103.00	-32.00	-4.00	-40.00
31.00	-17.00	357.00	103.00	-39.00	15.00	-43.00
16.00	-10.00	350.00	68.00	-48.00	20.00	-44.00
12.00	7.00	503.00	84.00	-51.00	23.00	-36.00
7.00	17.00	402.00	34.00	-41.00	37.00	-37.00
1.00	43.00	200.00	14.00	-37.00	40.00	-38.00
-20.00	49.00	56.00	18.00	-25.00	34.00	-42.00
-23.00	48.00	-65.00	51.00	-13.00	22.00	-41.00
-6.00	32.00	-74.00	73.00	2.00	3.00	-33.00
7.00	3.00	-91.00	93.00	38.00	-26.00	-26.00
-8.00	-24.00	-239.00	20.00	40.00	-10.00	-27.00
-26.00	13.00	-591.00	-67.00	31.00	15.00	-28.00
-24.00	21.00	-573.00	-31.00	71.00	12.00	-14.00
-11.00	8.00	-333.00	33.00	87.00	8.00	-7.00
-8.00	21.00	-46.00	103.00	60.00	15.00	-8.00
-5.00	26.00	197.00	96.00	22.00	22.00	-13.00
-4.00	5.00	423.00	144.00	-18.00	22.00	-10.00
11.00	-9.00	534.00	144.00	-55.00	13.00	-5.00
17.00	-28.00	389.00	128.00	-73.00	9.00	-10.00
17.00	-30.00	137.00	60.00	-87.00	30.00	-9.00
11.00	-8.00	66.00	36.00	-84.00	26.00	-3.00
23.00	20.00	-171.00	-114.00	-52.00	19.00	-8.00
19.00	0.00	-242.00	-166.00	7.00	-9.00	3.00
4.00	5.00	-50.00	-158.00	10.00	-15.00	1.00
-23.00	14.00	109.00	-104.00	-15.00	2.00	-8.00
-18.00	-14.00	295.00	-16.00	-7.00	1.00	-12.00
1.00	-21.00	214.00	14.00	32.00	-2.00	-12.00
17.00	-17.00	216.00	36.00	54.00	-2.00	-18.00
11.00	16.00	225.00	83.00	46.00	15.00	-19.00
-10.00	15.00	-4.00	76.00	40.00	27.00	-25.00
-33.00	-5.00	-196.00	3.00	42.00	31.00	-23.00
-39.00	28.00	-264.00	-19.00	42.00	32.00	-26.00
-39.00	44.00	-219.00	-10.00	30.00	32.00	-16.00
-31.00	97.00	-190.00	-95.00	15.00	25.00	-36.00
-29.00	88.00	-198.00	-143.00	17.00	28.00	-33.00
-41.00	46.00	-115.00	-49.00	22.00	23.00	-40.00
-39.00	39.00	-34.00	7.00	31.00	7.00	-29.00
-29.00	32.00	-43.00	6.00	31.00	10.00	-26.00
-22.00	7.00	-143.00	1.00	48.00	14.00	-23.00
-22.00	6.00	-266.00	-8.00	57.00	18.00	-19.00
-12.00	-4.00	-157.00	148.00	51.00	32.00	-20.00
-13.00	24.00	-146.00	250.00	46.00	45.00	-9.00
-17.00	51.00	-221.00	213.00	23.00	46.00	-18.00
-35.00	39.00	-273.00	105.00	-4.00	36.00	-23.00
-40.00	28.00	-362.00	61.00	-9.00	30.00	-16.00
-28.00	25.00	-488.00	-16.00	-18.00	19.00	-16.00
-24.00	15.00	-663.00	-184.00	-15.00	4.00	-14.00
-15.00	18.00	-514.00	-259.00	6.00	-23.00	-14.00
0.00	6.00	-155.00	-197.00	26.00	-32.00	-21.00
22.00	-4.00	342.00	-125.00	36.00	-37.00	-14.00
44.00	-18.00	713.00	-77.00	47.00	-20.00	-4.00
60.00	-29.00	1169.00	7.00	35.00	-13.00	-18.00
51.00	-8.00	1122.00	44.00	47.00	4.00	-16.00
54.00	47.00	898.00	51.00	66.00	19.00	1.00
52.00	41.00	441.00	56.00	85.00	30.00	2.00
25.00	5.00	148.00	27.00	79.00	26.00	-5.00
-4.00	8.00	-153.00	-12.00	59.00	35.00	-8.00
-17.00	23.00	-232.00	-24.00	44.00	47.00	-1.00
-17.00	25.00	-85.00	7.00	33.00	46.00	5.00
2.00	49.00	26.00	43.00	32.00	29.00	14.00
12.00	59.00	-30.00	50.00	47.00	7.00	20.00
12.00	57.00	-50.00	18.00	48.00	4.00	23.00
5.00	12.00	-96.00	14.00	41.00	-1.00	35.00
11.00	3.00	-97.00	86.00	29.00	-9.00	43.00
16.00	6.00	1.00	74.00	33.00	-7.00	16.00
6.00	-11.00	143.00	101.00	28.00	8.00	11.00
4.00	-14.00	239.00	138.00	9.00	15.00	8.00
9.00	-5.00	309.00	76.00	-11.00	14.00	-5.00
12.00	0.00	64.00	-32.00	-30.00	-1.00	-7.00
20.00	6.00	-90.00	-133.00	-29.00	-4.00	-12.00
12.00	3.00	-144.00	-195.00	-37.00	-12.00	1.00
20.00	-13.00	-164.00	-283.00	-15.00	-20.00	5.00
26.00	-35.00	-167.00	-341.00	20.00	-26.00	19.00
40.00	-46.00	-47.00	-281.00	37.00	-17.00	19.00
40.00	-47.00	146.00	-130.00	30.00	-22.00	7.00
33.00	-38.00	196.00	-21.00	26.00	-21.00	3.00
16.00	-43.00	62.00	-5.00	17.00	-13.00	7.00
-9.00	-25.00	-335.00	-27.00	26.00	13.00	14.00
-25.00	18.00	-556.00	-21.00	29.00	23.00	22.00
-29.00	33.00	-579.00	-22.00	20.00	24.00	22.00
-29.00	69.00	-475.00	-56.00	-10.00	40.00	9.00
-32.00	68.00	-349.00	-41.00	-54.00	34.00	9.00
-12.00	25.00	-78.00	27.00	-64.00	6.00	8.00
26.00	10.00	276.00	68.00	-60.00	-12.00	9.00
26.00	22.00	467.00	130.00	-60.00	5.00	16.00
30.00	0.00	495.00	138.00	-26.00	-6.00	18.00
35.00	-14.00	272.00	85.00	17.00	-23.00	29.00
38.00	-60.00	167.00	63.00	44.00	-25.00	30.00
29.00	-78.00	-63.00	63.00	7.00	8.00	9.00
24.00	-11.00	-150.00	122.00	-36.00	45.00	10.00
28.00	90.00	-95.00	231.00	-22.00	65.00	23.00
24.00	168.00	-249.00	166.00	-15.00	65.00	24.00
-18.00	155.00	-421.00	47.00	-11.00	69.00	22.00
-42.00	131.00	-304.00	24.00	-8.00	42.00	30.00
-53.00	41.00	-49.00	65.00	16.00	-11.00	19.00
-53.00	-12.00	-186.00	-36.00	39.00	-22.00	-6.00
-29.00	-29.00	-95.00	-137.00	61.00	-13.00	-25.00
-6.00	28.00	23.00	-82.00	58.00	-1.00	-29.00
4.00	63.00	272.00	93.00	36.00	8.00	-34.00
11.00	94.00	361.00	159.00	35.00	-1.00	-26.00
19.00	83.00	479.00	117.00	32.00	-9.00	-26.00
15.00	61.00	484.00	28.00	36.00	-4.00	-16.00
27.00	56.00	369.00	36.00	53.00	-16.00	-2.00
21.00	27.00	206.00	-41.00	85.00	-26.00	-9.00
23.00	26.00	-29.00	-66.00	68.00	1.00	2.00
19.00	-34.00	65.00	18.00	39.00	10.00	13.00
6.00	-92.00	201.00	134.00	13.00	9.00	11.00
2.00	-90.00	181.00	195.00	-16.00	15.00	3.00
0.00	-45.00	274.00	254.00	-35.00	29.00	-2.00
-2.00	-8.00	511.00	211.00	-50.00	35.00	-10.00
-7.00	12.00	473.00	122.00	-50.00	29.00	-5.00
-26.00	-5.00	87.00	7.00	-30.00	19.00	-9.00
-39.00	37.00	-267.00	-102.00	-5.00	4.00	-6.00
-45.00	28.00	-581.00	-221.00	18.00	-22.00	-2.00
-48.00	-15.00	-910.00	-379.00	46.00	-39.00	-6.00
-53.00	-65.00	-1255.00	-337.00	62.00	-31.00	-26.00
-46.00	-68.00	-1171.00	-161.00	51.00	-5.00	-36.00
-39.00	-29.00	-968.00	-97.00	34.00	15.00	-23.00
-46.00	21.00	-726.00	-52.00	12.00	36.00	-15.00
-55.00	66.00	-481.00	-13.00	-2.00	37.00	-9.00
-39.00	128.00	-1.00	11.00	12.00	19.00	-6.00
1.00	72.00	391.00	66.00	36.00	-5.00	-6.00
8.00	29.00	601.00	87.00	25.00	-20.00	-19.00
17.00	22.00	753.00	88.00	-7.00	-20.00	-22.00
54.00	4.00	594.00	41.00	-13.00	-11.00	-23.00
56.00	10.00	665.00	36.00	-2.00	-2.00	-26.00
43.00	36.00	482.00	17.00	27.00	3.00	-11.00
31.00	42.00	455.00	58.00	54.00	12.00	-5.00
8.00	6.00	333.00	41.00	59.00	12.00	-9.00
4.00	-7.00	226.00	9.00	63.00	10.00	-13.00
12.00	11.00	250.00	64.00	59.00	5.00	24.00
11.00	18.00	284.00	129.00	45.00	5.00	33.00
12.00	9.00	315.00	212.00	35.00	9.00	14.00
-15.00	-5.00	10.00	142.00	27.00	22.00	10.00
-21.00	2.00	-136.00	137.00	26.00	14.00	2.00
-24.00	-23.00	-146.00	89.00	14.00	14.00	10.00
-23.00	-21.00	-120.00	62.00	-6.00	34.00	4.00
-19.00	2.00	-76.00	36.00	-16.00	30.00	23.00
-14.00	-5.00	-57.00	81.00	-34.00	33.00	15.00
-16.00	-14.00	-149.00	56.00	-45.00	37.00	11.00
-27.00	-49.00	-244.00	88.00	-39.00	44.00	14.00
-41.00	-67.00	-187.00	178.00	-25.00	23.00	15.00
-36.00	-26.00	-561.00	78.00	8.00	10.00	14.00
-27.00	-1.00	-783.00	-123.00	18.00	4.00	11.00
-19.00	41.00	-472.00	-156.00	1.00	22.00	5.00
-28.00	45.00	-218.00	-135.00	-15.00	38.00	-5.00
-34.00	51.00	-17.00	-139.00	-21.00	18.00	-12.00
-18.00	66.00	-27.00	-199.00	-3.00	-16.00	7.00
33.00	33.00	449.00	-147.00	19.00	-58.00	6.00
58.00	6.00	695.00	-123.00	55.00	-65.00	20.00
66.00	-16.00	755.00	-71.00	51.00	-26.00	-11.00
62.00	-10.00	365.00	-110.00	43.00	7.00	-24.00
60.00	27.00	63.00	-116.00	76.00	25.00	3.00
51.00	41.00	-36.00	-70.00	85.00	15.00	-7.00
23.00	4.00	-28.00	-25.00	78.00	2.00	-6.00
-8.00	-15.00	57.00	16.00	60.00	3.00	2.00
-20.00	7.00	157.00	68.00	19.00	7.00	-4.00
-28.00	14.00	169.00	117.00	-9.00	6.00	-26.00
-21.00	-27.00	162.00	250.00	-18.00	-3.00	-14.00
-15.00	-41.00	109.00	199.00	-23.00	12.00	-12.00
-10.00	8.00	39.00	155.00	-28.00	17.00	6.00
3.00	112.00	-102.00	118.00	-20.00	19.00	-1.00
-8.00	117.00	-253.00	29.00	-38.00	27.00	7.00
-11.00	53.00	-169.00	-58.00	-55.00	22.00	21.00
-7.00	-6.00	3.00	-85.00	-50.00	6.00	24.00
-8.00	-2.00	65.00	-112.00	-31.00	-7.00	40.00
-8.00	-21.00	28.00	-123.00	-9.00	-5.00	37.00
3.00	-37.00	-8.00	-59.00	7.00	8.00	57.00
6.00	-79.00	-38.00	-64.00	5.00	18.00	49.00
-5.00	-65.00	36.00	-57.00	-1.00	34.00	45.00
-16.00	-5.00	-46.00	-65.00	-8.00	44.00	41.00
-22.00	127.00	-245.00	-56.00	-13.00	42.00	58.00
-42.00	155.00	-475.00	-65.00	-20.00	41.00	40.00
-48.00	122.00	-419.00	-58.00	-10.00	28.00	25.00
-49.00	83.00	-433.00	-65.00	30.00	11.00	12.00
-59.00	31.00	-716.00	-122.00	51.00	6.00	-7.00
-44.00	13.00	-615.00	-60.00	45.00	-1.00	-31.00
-7.00	5.00	-252.00	-44.00	13.00	6.00	-27.00
16.00	-3.00	-50.00	5.00	-12.00	-5.00	-40.00
15.00	-4.00	17.00	35.00	-29.00	-5.00	-31.00
29.00	-2.00	209.00	2.00	-3.00	-18.00	-45.00
41.00	-10.00	404.00	5.00	32.00	-27.00	-48.00
35.00	-11.00	409.00	60.00	58.00	-35.00	-34.00
47.00	-1.00	144.00	77.00	43.00	-37.00	-35.00
58.00	22.00	2.00	90.00	29.00	-18.00	-36.00
41.00	23.00	131.00	85.00	-4.00	-2.00	-40.00
5.00	2.00	292.00	51.00	-33.00	12.00	-48.00
-5.00	-7.00	363.00	60.00	-20.00	13.00	-45.00
5.00	11.00	456.00	76.00	21.00	1.00	-37.00
1.00	11.00	517.00	104.00	40.00	0.00	-30.00
9.00	-6.00	502.00	139.00	52.00	8.00	-27.00
7.00	10.00	174.00	113.00	37.00	12.00	-25.00
-16.00	35.00	7.00	114.00	18.00	9.00	-19.00
-11.00	58.00	-85.00	107.00	7.00	9.00	-23.00
-10.00	32.00	-291.00	103.00	4.00	2.00	-9.00
-7.00	-11.00	-109.00	182.00	11.00	-5.00	6.00
2.00	22.00	-35.00	181.00	11.00	12.00	12.00
-1.00	52.00	29.00	225.00	6.00	16.00	32.00
0.00	53.00	-43.00	165.00	20.00	22.00	53.00
-11.00	33.00	-73.00	58.00	21.00	39.00	39.00
-23.00	16.00	-136.00	-68.00	15.00	49.00	22.00
-18.00	20.00	-123.00	-139.00	5.00	39.00	24.00
-10.00	24.00	-150.00	-162.00	36.00	10.00	12.00
12.00	1.00	-154.00	-214.00	69.00	-3.00	13.00
3.00	-10.00	-75.00	-184.00	65.00	3.00	12.00
-12.00	-10.00	-92.00	-210.00	54.00	29.00	15.00
-16.00	-31.00	-38.00	-187.00	59.00	19.00	6.00
-8.00	-24.00	-78.00	-158.00	47.00	10.00	3.00
-6.00	-9.00	4.00	-82.00	10.00	11.00	11.00
5.00	3.00	167.00	6.00	1.00	-3.00	13.00
16.00	-9.00	119.00	68.00	-10.00	15.00	5.00
12.00	14.00	-39.00	68.00	-33.00	44.00	5.00
13.00	33.00	-122.00	63.00	-34.00	46.00	-7.00
9.00	12.00	-154.00	56.00	-34.00	38.00	-16.00
-2.00	-21.00	-94.00	47.00	-18.00	14.00	-16.00
2.00	-38.00	190.00	57.00	40.00	-22.00	-6.00
12.00	-51.00	272.00	0.00	94.00	-55.00	-13.00
24.00	-13.00	354.00	-44.00	56.00	-46.00	-11.00
41.00	43.00	429.00	-14.00	26.00	-18.00	-9.00
39.00	69.00	203.00	-13.00	15.00	-6.00	-3.00
28.00	48.00	151.00	67.00	17.00	-5.00	-15.00
7.00	57.00	133.00	142.00	12.00	12.00	1.00
-28.00	10.00	-276.00	117.00	-2.00	31.00	14.00
-40.00	5.00	-511.00	32.00	-9.00	54.00	10.00
-44.00	9.00	-571.00	129.00	-32.00	56.00	-2.00
-36.00	42.00	-448.00	68.00	-30.00	37.00	7.00
-29.00	73.00	-238.00	-22.00	4.00	21.00	6.00
-32.00	88.00	-118.00	-52.00	17.00	21.00	15.00
-12.00	84.00	-172.00	-33.00	8.00	2.00	17.00
3.00	70.00	-326.00	-54.00	8.00	-12.00	14.00
3.00	91.00	-353.00	-115.00	21.00	4.00	14.00
0.00	149.00	-362.00	-240.00	21.00	13.00	-1.00
0.00	137.00	-285.00	-302.00	6.00	17.00	-4.00
-5.00	128.00	303.00	-193.00	13.00	-12.00	-5.00
3.00	61.00	631.00	-94.00	29.00	-37.00	-12.00
40.00	-17.00	887.00	64.00	7.00	-33.00	-22.00
69.00	-90.00	971.00	154.00	5.00	-28.00	-31.00
71.00	-132.00	868.00	167.00	-23.00	-10.00	-19.00
63.00	-173.00	642.00	128.00	-28.00	1.00	-14.00
39.00	-165.00	189.00	16.00	-17.00	10.00	-21.00
14.00	-146.00	-75.00	26.00	-11.00	21.00	-16.00
4.00	-132.00	-209.00	95.00	5.00	18.00	-15.00
-10.00	-113.00	-326.00	107.00	33.00	11.00	-13.00
-17.00	-100.00	-352.00	107.00	50.00	0.00	2.00
-15.00	-72.00	-197.00	168.00	48.00	9.00	16.00
-25.00	-52.00	-210.00	206.00	21.00	25.00	8.00
-35.00	-23.00	-365.00	141.00	2.00	34.00	14.00
-35.00	-4.00	-318.00	42.00	-1.00	30.00	16.00
-30.00	-21.00	-391.00	-68.00	-12.00	26.00	4.00
-35.00	-22.00	-481.00	-140.00	-4.00	19.00	36.00
-47.00	63.00	-481.00	-291.00	-1.00	20.00	64.00
-27.00	111.00	-433.00	-336.00	5.00	39.00	50.00
-24.00	74.00	-254.00	-207.00	13.00	47.00	37.00
-20.00	51.00	225.00	-82.00	7.00	33.00	38.00
5.00	59.00	528.00	87.00	17.00	11.00	25.00
37.00	49.00	558.00	113.00	45.00	3.00	31.00
55.00	33.00	522.00	154.00	60.00	-20.00	14.00
49.00	24.00	518.00	139.00	39.00	-17.00	12.00
22.00	62.00	493.00	91.00	11.00	5.00	7.00
17.00	79.00	316.00	30.00	7.00	15.00	-4.00
22.00	44.00	323.00	50.00	6.00	6.00	-5.00
21.00	34.00	270.00	69.00	0.00	2.00	0.00
31.00	44.00	128.00	37.00	-1.00	6.00	5.00
9.00	44.00	-42.00	-5.00	0.00	5.00	-6.00
-2.00	36.00	-82.00	-22.00	-21.00	20.00	-28.00
-8.00	36.00	-57.00	28.00	-1.00	21.00	-19.00
-17.00	29.00	-126.00	43.00	24.00	11.00	-10.00
-34.00	21.00	-266.00	-8.00	16.00	8.00	-5.00
-40.00	16.00	-385.00	-34.00	3.00	8.00	0.00
-42.00	14.00	-414.00	-39.00	6.00	13.00	-14.00
-49.00	22.00	-476.00	-47.00	1.00	22.00	-1.00
-55.00	22.00	-545.00	-71.00	-17.00	36.00	-6.00
-53.00	9.00	-388.00	-68.00	-4.00	41.00	2.00
-38.00	7.00	-155.00	1.00	33.00	23.00	-4.00
-17.00	14.00	-57.00	25.00	37.00	14.00	3.00
-8.00	-18.00	1.00	12.00	21.00	8.00	8.00
-19.00	-15.00	-204.00	98.00	18.00	6.00	13.00
-28.00	38.00	-506.00	80.00	12.00	35.00	0.00
-25.00	99.00	-647.00	24.00	5.00	51.00	-10.00
-10.00	105.00	-483.00	-37.00	-1.00	38.00	-21.00
-8.00	73.00	-20.00	-46.00	-7.00	22.00	-16.00
-7.00	42.00	319.00	6.00	-13.00	13.00	-13.00
26.00	17.00	673.00	-20.00	17.00	-16.00	-8.00
82.00	4.00	1109.00	83.00	67.00	-47.00	-14.00
107.00	-6.00	1155.00	236.00	66.00	-53.00	-11.00
123.00	2.00	1172.00	308.00	30.00	-27.00	-15.00
114.00	35.00	831.00	178.00	21.00	-8.00	-24.00
88.00	35.00	448.00	38.00	40.00	-14.00	-27.00
60.00	5.00	246.00	-7.00	47.00	-6.00	-24.00
26.00	-15.00	61.00	-40.00	42.00	7.00	-15.00
4.00	-41.00	-112.00	-100.00	37.00	-3.00	-9.00
-14.00	-60.00	-211.00	-194.00	17.00	-5.00	-7.00
-23.00	-42.00	-190.00	-266.00	-3.00	6.00	-14.00
-24.00	-22.00	-182.00	-159.00	1.00	17.00	8.00
-30.00	-21.00	-290.00	-48.00	3.00	32.00	18.00
-39.00	-55.00	-360.00	-41.00	-33.00	32.00	22.00
-42.00	-82.00	-402.00	-74.00	-41.00	28.00	21.00
-50.00	-58.00	-408.00	-6.00	-29.00	6.00	19.00
-57.00	1.00	-519.00	0.00	-30.00	-13.00	30.00
-60.00	33.00	-427.00	47.00	-4.00	-19.00	26.00
-56.00	36.00	-241.00	117.00	50.00	-30.00	24.00
-47.00	9.00	-426.00	84.00	74.00	-26.00	28.00
-43.00	20.00	-688.00	81.00	54.00	3.00	8.00
-38.00	72.00	-889.00	39.00	40.00	13.00	3.00
-32.00	107.00	-885.00	-43.00	33.00	1.00	5.00
-28.00	96.00	-519.00	-115.00	22.00	-16.00	-10.00
-14.00	78.00	13.00	-170.00	20.00	-5.00	-24.00
2.00	68.00	472.00	-102.00	6.00	1.00	-31.00
26.00	41.00	854.00	23.00	5.00	-14.00	-42.00
65.00	24.00	1349.00	115.00	2.00	-33.00	-46.00
82.00	32.00	1144.00	72.00	1.00	-12.00	-49.00
75.00	26.00	748.00	87.00	8.00	12.00	-50.00
61.00	12.00	350.00	96.00	-4.00	32.00	-45.00
34.00	4.00	151.00	62.00	-16.00	30.00	-39.00
15.00	-4.00	64.00	13.00	-20.00	44.00	-14.00
6.00	-9.00	-56.00	-20.00	-12.00	63.00	-11.00
-13.00	-28.00	-25.00	26.00	-16.00	70.00	-20.00
-21.00	-30.00	2.00	38.00	-14.00	75.00	-29.00
-15.00	-16.00	-44.00	14.00	-9.00	69.00	-45.00
-21.00	-9.00	-152.00	-13.00	5.00	54.00	-10.00
-17.00	-11.00	-68.00	16.00	45.00	32.00	4.00
-15.00	6.00	-14.00	53.00	73.00	-9.00	7.00
-11.00	-11.00	-80.00	-40.00	70.00	-23.00	5.00
-11.00	-46.00	33.00	10.00	44.00	-6.00	12.00
-14.00	-38.00	118.00	92.00	21.00	18.00	8.00
-21.00	-33.00	6.00	108.00	-1.00	24.00	-16.00
-40.00	24.00	58.00	108.00	-12.00	37.00	-23.00
-54.00	57.00	-117.00	37.00	-5.00	47.00	-15.00
-61.00	89.00	-472.00	-29.00	4.00	24.00	-7.00
-45.00	60.00	-611.00	-177.00	11.00	-3.00	-4.00
-19.00	38.00	-670.00	-199.00	23.00	-12.00	-13.00
-17.00	9.00	-550.00	-135.00	32.00	-19.00	-5.00
15.00	25.00	-182.00	-41.00	31.00	-39.00	-10.00
39.00	17.00	117.00	95.00	31.00	-43.00	-9.00
73.00	13.00	375.00	133.00	18.00	-29.00	-4.00
73.00	13.00	491.00	106.00	7.00	-14.00	-5.00
64.00	6.00	194.00	79.00	-5.00	-13.00	-9.00
48.00	20.00	28.00	1.00	-9.00	0.00	-7.00
19.00	13.00	-68.00	-86.00	5.00	5.00	-5.00
9.00	20.00	-37.00	-102.00	18.00	4.00	2.00
11.00	10.00	-29.00	-63.00	18.00	0.00	3.00
6.00	6.00	164.00	19.00	17.00	-9.00	11.00
4.00	21.00	334.00	77.00	7.00	-15.00	9.00
15.00	28.00	210.00	44.00	-4.00	-2.00	11.00
5.00	15.00	-7.00	-18.00	-4.00	10.00	17.00
-1.00	-2.00	-74.00	-28.00	2.00	9.00	-2.00
-9.00	-16.00	-25.00	-27.00	7.00	19.00	5.00
-13.00	-10.00	-15.00	11.00	29.00	-7.00	40.00
-12.00	6.00	0.00	47.00	59.00	-26.00	54.00
-9.00	15.00	90.00	48.00	54.00	-17.00	49.00
-3.00	13.00	186.00	81.00	49.00	3.00	23.00
-4.00	12.00	168.00	115.00	54.00	10.00	13.00
-15.00	19.00	20.00	35.00	36.00	14.00	8.00
-18.00	13.00	-20.00	17.00	17.00	13.00	-5.00
-20.00	11.00	-224.00	24.00	30.00	4.00	-25.00
-52.00	-15.00	-660.00	-28.00	29.00	9.00	-24.00
-41.00	-21.00	-699.00	-58.00	16.00	15.00	-9.00
-18.00	6.00	-575.00	-7.00	1.00	22.00	-2.00
-2.00	72.00	-286.00	71.00	-19.00	2.00	-3.00
18.00	114.00	182.00	56.00	-23.00	-28.00	-20.00
48.00	139.00	716.00	82.00	-25.00	-48.00	-26.00
66.00	47.00	1111.00	142.00	-53.00	-38.00	-14.00
68.00	-3.00	1218.00	116.00	-50.00	-26.00	1.00
49.00	0.00	786.00	-5.00	-30.00	2.00	10.00
31.00	32.00	279.00	-37.00	3.00	16.00	9.00
23.00	50.00	-111.00	-35.00	11.00	22.00	15.00
7.00	31.00	-427.00	-139.00	5.00	14.00	18.00
1.00	29.00	-494.00	-228.00	24.00	4.00	33.00
-2.00	34.00	-556.00	-195.00	45.00	10.00	41.00
-2.00	60.00	-529.00	-170.00	17.00	27.00	22.00
8.00	75.00	-295.00	-155.00	10.00	32.00	22.00
23.00	58.00	-6.00	-56.00	23.00	26.00	15.00
22.00	20.00	150.00	37.00	24.00	27.00	11.00
11.00	-6.00	104.00	75.00	11.00	20.00	12.00
0.00	-11.00	120.00	23.00	-24.00	38.00	8.00
-8.00	-70.00	41.00	0.00	-51.00	52.00	11.00
-22.00	-97.00	-85.00	-30.00	-59.00	50.00	-5.00
-22.00	-110.00	24.00	-29.00	-47.00	54.00	4.00
-11.00	-133.00	187.00	74.00	0.00	47.00	10.00
-7.00	-109.00	68.00	148.00	66.00	-2.00	10.00
-7.00	-94.00	-60.00	156.00	67.00	-12.00	10.00
-21.00	-73.00	-290.00	142.00	26.00	22.00	22.00
-34.00	-58.00	-360.00	88.00	-7.00	43.00	16.00
-44.00	-52.00	-380.00	-23.00	5.00	38.00	9.00
-38.00	-34.00	-221.00	-20.00	35.00	13.00	4.00
-21.00	-24.00	-170.00	0.00	44.00	-8.00	6.00
1.00	-4.00	81.00	105.00	34.00	-9.00	1.00
35.00	30.00	377.00	87.00	35.00	-21.00	-7.00
41.00	42.00	419.00	101.00	39.00	-10.00	-10.00
46.00	79.00	456.00	133.00	24.00	-4.00	-20.00
51.00	68.00	421.00	78.00	16.00	-3.00	-18.00
30.00	66.00	368.00	103.00	35.00	-21.00	-21.00
24.00	56.00	296.00	5.00	64.00	-22.00	-19.00
35.00	73.00	132.00	-121.00	88.00	-20.00	-19.00
25.00	65.00	-90.00	-163.00	73.00	-21.00	-22.00
22.00	75.00	-232.00	-122.00	44.00	-1.00	-15.00
6.00	81.00	-383.00	-124.00	13.00	12.00	-11.00
-10.00	60.00	-421.00	-86.00	-17.00	13.00	-11.00
-9.00	50.00	-223.00	-10.00	-30.00	12.00	-1.00
-3.00	48.00	-135.00	-41.00	-27.00	22.00	10.00
-8.00	14.00	-41.00	-63.00	-37.00	30.00	11.00
-8.00	-3.00	123.00	-19.00	-38.00	21.00	22.00
-21.00	-2.00	94.00	18.00	-34.00	12.00	28.00
-23.00	-7.00	-42.00	-3.00	-38.00	4.00	27.00
-18.00	-30.00	-196.00	-21.00	-19.00	17.00	34.00
-27.00	-34.00	-413.00	-16.00	-3.00	25.00	35.00
-24.00	-4.00	-464.00	65.00	7.00	23.00	38.00
-27.00	15.00	-201.00	80.00	-1.00	31.00	59.00
-41.00	39.00	8.00	102.00	-25.00	57.00	29.00
-63.00	26.00	-42.00	131.00	-35.00	65.00	10.00
-51.00	-12.00	-115.00	71.00	-21.00	47.00	20.00
-25.00	-41.00	-29.00	13.00	-11.00	24.00	5.00
-8.00	-23.00	-56.00	-69.00	0.00	8.00	3.00
-1.00	22.00	-108.00	-105.00	12.00	11.00	5.00
5.00	66.00	122.00	-29.00	20.00	-2.00	-15.00
15.00	87.00	308.00	-41.00	40.00	-15.00	-16.00
2.00	70.00	530.00	21.00	45.00	-27.00	-25.00
-2.00	19.00	351.00	-45.00	57.00	-42.00	-26.00
11.00	20.00	298.00	12.00	41.00	-43.00	-29.00
17.00	46.00	92.00	13.00	43.00	-13.00	-35.00
12.00	34.00	-80.00	-36.00	33.00	10.00	-40.00
-8.00	36.00	-232.00	-97.00	12.00	23.00	-37.00
8.00	47.00	26.00	44.00	42.00	-7.00	-27.00
25.00	26.00	220.00	60.00	77.00	-45.00	-27.00
35.00	-7.00	468.00	31.00	83.00	-40.00	-24.00
48.00	0.00	588.00	149.00	51.00	-16.00	-15.00
43.00	10.00	412.00	195.00	51.00	-3.00	-10.00
38.00	23.00	367.00	78.00	51.00	7.00	-6.00
30.00	30.00	285.00	42.00	37.00	8.00	0.00
12.00	12.00	68.00	68.00	11.00	9.00	15.00
-4.00	-20.00	-94.00	69.00	-9.00	20.00	38.00
-22.00	-51.00	-324.00	82.00	19.00	22.00	31.00
-42.00	-34.00	-758.00	45.00	15.00	29.00	12.00
-54.00	29.00	-887.00	-68.00	0.00	32.00	3.00
-55.00	69.00	-788.00	-133.00	5.00	38.00	16.00
-56.00	116.00	-366.00	-98.00	-10.00	55.00	2.00
-61.00	88.00	-15.00	18.00	-27.00	47.00	-9.00
-50.00	24.00	232.00	38.00	-44.00	14.00	-5.00
-12.00	3.00	623.00	62.00	-63.00	2.00	-9.00
18.00	1.00	640.00	31.00	-54.00	-6.00	-14.00
31.00	5.00	271.00	-38.00	-43.00	-17.00	-12.00
39.00	-14.00	103.00	-147.00	-28.00	-9.00	-16.00
20.00	-11.00	21.00	-163.00	-36.00	11.00	-21.00
3.00	-5.00	-161.00	-129.00	-70.00	43.00	-20.00
-7.00	4.00	-197.00	-41.00	-56.00	46.00	-14.00
0.00	11.00	-66.00	34.00	24.00	-2.00	10.00
0.00	9.00	58.00	90.00	109.00	-40.00	13.00
-2.00	3.00	40.00	128.00	94.00	-25.00	14.00
-4.00	15.00	74.00	137.00	41.00	15.00	24.00
-2.00	8.00	36.00	128.00	13.00	28.00	18.00
4.00	-4.00	86.00	170.00	13.00	5.00	25.00
19.00	0.00	69.00	94.00	23.00	5.00	34.00
19.00	0.00	40.00	-17.00	28.00	26.00	31.00
12.00	4.00	-60.00	-48.00	19.00	24.00	19.00
1.00	-2.00	-153.00	-79.00	14.00	15.00	2.00
-13.00	-23.00	-139.00	-78.00	16.00	15.00	-2.00
-23.00	-4.00	-126.00	-71.00	21.00	21.00	-5.00
-17.00	24.00	-160.00	-110.00	44.00	9.00	-7.00
-5.00	16.00	-109.00	-93.00	53.00	1.00	-15.00
3.00	24.00	-30.00	-123.00	31.00	16.00	-26.00
2.00	48.00	-46.00	-134.00	10.00	22.00	-25.00
-4.00	28.00	-2.00	-24.00	1.00	9.00	-6.00
-10.00	10.00	-63.00	15.00	-2.00	19.00	-6.00
-24.00	-6.00	-180.00	38.00	-2.00	24.00	-4.00
-19.00	16.00	-351.00	0.00	2.00	10.00	-2.00
-13.00	14.00	-249.00	25.00	21.00	-8.00	-6.00
-3.00	-2.00	-281.00	-26.00	25.00	1.00	-9.00
-14.00	-22.00	-394.00	-3.00	-6.00	37.00	-1.00
-15.00	-27.00	-321.00	5.00	-22.00	42.00	-9.00
-10.00	-3.00	-91.00	25.00	-34.00	22.00	-20.00
-18.00	20.00	108.00	-29.00	-28.00	24.00	3.00
-10.00	48.00	198.00	-10.00	-6.00	9.00	3.00
9.00	50.00	395.00	59.00	18.00	-30.00	2.00
39.00	32.00	775.00	174.00	14.00	-34.00	2.00
49.00	37.00	609.00	144.00	16.00	-13.00	1.00
32.00	35.00	305.00	47.00	4.00	22.00	4.00
14.00	23.00	-142.00	-17.00	6.00	19.00	-11.00
-8.00	13.00	-360.00	-58.00	29.00	9.00	-5.00
-9.00	-3.00	-377.00	-31.00	43.00	8.00	2.00
-11.00	10.00	-283.00	15.00	52.00	-18.00	6.00
19.00	0.00	-7.00	58.00	51.00	-40.00	1.00
35.00	2.00	404.00	146.00	28.00	-22.00	4.00
41.00	1.00	557.00	105.00	0.00	14.00	1.00
47.00	-7.00	484.00	79.00	1.00	9.00	-4.00
46.00	0.00	298.00	56.00	22.00	9.00	-3.00
42.00	-14.00	182.00	37.00	28.00	0.00	0.00
34.00	-40.00	125.00	37.00	24.00	2.00	8.00
12.00	-56.00	125.00	102.00	1.00	19.00	5.00
3.00	-14.00	188.00	174.00	-6.00	22.00	7.00
-17.00	46.00	107.00	185.00	-11.00	35.00	21.00
-24.00	76.00	-147.00	74.00	-19.00	39.00	26.00
-33.00	90.00	-302.00	-48.00	-15.00	37.00	30.00
-45.00	52.00	-418.00	-191.00	-13.00	37.00	22.00
-48.00	27.00	-567.00	-272.00	-1.00	25.00	21.00
-25.00	29.00	-283.00	-177.00	28.00	14.00	20.00
3.00	52.00	174.00	-29.00	40.00	7.00	7.00
3.00	71.00	61.00	33.00	47.00	-14.00	0.00
-6.00	54.00	-319.00	37.00	73.00	-12.00	-5.00
-7.00	39.00	-332.00	-46.00	80.00	0.00	-2.00
3.00	15.00	-300.00	-53.00	70.00	-17.00	-12.00
11.00	-6.00	-150.00	-89.00	63.00	-13.00	-28.00
-1.00	-42.00	-31.00	-106.00	42.00	-2.00	-42.00
1.00	-53.00	237.00	-28.00	16.00	-3.00	-44.00
2.00	-40.00	218.00	-21.00	-18.00	15.00	-43.00
11.00	-29.00	205.00	-3.00	-39.00	17.00	-36.00
9.00	-59.00	126.00	-19.00	-42.00	9.00	-35.00
4.00	-69.00	94.00	-69.00	-77.00	17.00	-22.00
8.00	-22.00	214.00	37.00	-77.00	16.00	3.00
13.00	7.00	228.00	130.00	-72.00	3.00	2.00
10.00	23.00	274.00	168.00	-36.00	-6.00	5.00
8.00	-15.00	443.00	155.00	-35.00	3.00	14.00
-17.00	-58.00	432.00	80.00	-60.00	26.00	25.00
-19.00	-45.00	310.00	-66.00	-68.00	46.00	25.00
-17.00	18.00	117.00	-103.00	-66.00	59.00	38.00
-17.00	101.00	-289.00	-13.00	-52.00	60.00	43.00
-16.00	122.00	-534.00	-14.00	-8.00	38.00	28.00
-21.00	102.00	-631.00	-109.00	18.00	2.00	31.00
-28.00	17.00	-529.00	-171.00	31.00	-30.00	29.00
-34.00	-17.00	-329.00	-82.00	13.00	-7.00	23.00
-20.00	-14.00	5.00	54.00	43.00	-14.00	16.00
-2.00	19.00	-83.00	-5.00	86.00	-23.00	7.00
8.00	69.00	-191.00	-2.00	78.00	-17.00	-1.00
6.00	69.00	-222.00	-3.00	61.00	-21.00	-6.00
3.00	31.00	80.00	20.00	27.00	-36.00	-4.00
25.00	17.00	369.00	28.00	8.00	-46.00	-21.00
26.00	16.00	249.00	-70.00	36.00	-29.00	-20.00
29.00	21.00	217.00	28.00	44.00	-13.00	-3.00
21.00	19.00	163.00	134.00	74.00	-7.00	4.00
13.00	15.00	80.00	133.00	111.00	-27.00	0.00
5.00	12.00	-21.00	78.00	103.00	-28.00	9.00
-1.00	16.00	-63.00	56.00	73.00	-10.00	-4.00
-3.00	21.00	-15.00	18.00	59.00	15.00	-32.00
-3.00	9.00	79.00	23.00	55.00	26.00	-14.00
-10.00	12.00	29.00	15.00	37.00	23.00	-5.00
-13.00	18.00	-41.00	13.00	23.00	35.00	-9.00
-16.00	20.00	4.00	41.00	9.00	36.00	-7.00
-13.00	23.00	14.00	78.00	12.00	33.00	-2.00
-7.00	-12.00	152.00	75.00	-4.00	36.00	4.00
0.00	-28.00	260.00	72.00	-19.00	41.00	8.00
6.00	-5.00	191.00	30.00	-22.00	34.00	-3.00
10.00	48.00	137.00	93.00	-3.00	25.00	-22.00
-1.00	64.00	-157.00	88.00	-4.00	23.00	-26.00
2.00	63.00	-392.00	50.00	-3.00	16.00	-18.00
13.00	80.00	-330.00	12.00	15.00	1.00	-32.00
-6.00	58.00	-299.00	-79.00	24.00	6.00	2.00
-6.00	41.00	-233.00	-184.00	0.00	5.00	3.00
1.00	4.00	-161.00	-220.00	-8.00	11.00	3.00
-3.00	-14.00	-390.00	-183.00	7.00	29.00	7.00
-42.00	-9.00	-335.00	-153.00	-30.00	74.00	-9.00
-57.00	-2.00	-250.00	-116.00	-24.00	69.00	-19.00
-42.00	-11.00	32.00	-24.00	14.00	36.00	-6.00
-31.00	-8.00	386.00	73.00	13.00	12.00	5.00
-26.00	-2.00	577.00	116.00	0.00	18.00	2.00
-26.00	-9.00	635.00	111.00	6.00	10.00	2.00
-10.00	-18.00	675.00	117.00	67.00	-23.00	10.00
19.00	-13.00	544.00	132.00	101.00	-46.00	11.00
44.00	-5.00	330.00	119.00	96.00	-47.00	10.00
45.00	-2.00	32.00	80.00	75.00	-24.00	6.00
30.00	-3.00	-218.00	56.00	52.00	-5.00	8.00
13.00	0.00	-218.00	50.00	41.00	4.00	6.00
11.00	12.00	-133.00	26.00	34.00	21.00	-1.00
17.00	8.00	-67.00	4.00	14.00	26.00	3.00
22.00	1.00	165.00	27.00	-5.00	31.00	1.00
17.00	30.00	58.00	65.00	-23.00	39.00	1.00
25.00	27.00	-124.00	79.00	-26.00	24.00	5.00
25.00	29.00	-318.00	58.00	-2.00	14.00	1.00
26.00	21.00	-503.00	48.00	5.00	4.00	9.00
20.00	36.00	-638.00	-150.00	0.00	4.00	14.00
6.00	27.00	-495.00	-244.00	16.00	-4.00	5.00
-3.00	63.00	-301.00	-273.00	33.00	-11.00	-2.00
-9.00	97.00	-472.00	-277.00	53.00	-4.00	4.00
6.00	33.00	17.00	-115.00	57.00	-21.00	14.00
29.00	7.00	442.00	-20.00	44.00	-38.00	8.00
55.00	-5.00	503.00	23.00	15.00	-54.00	0.00
52.00	-11.00	561.00	43.00	-12.00	-36.00	-3.00
74.00	-4.00	691.00	99.00	-42.00	-7.00	3.00
62.00	-14.00	574.00	78.00	-64.00	8.00	11.00
38.00	-6.00	332.00	68.00	-66.00	19.00	3.00
22.00	6.00	149.00	45.00	-61.00	27.00	1.00
2.00	23.00	-5.00	34.00	-47.00	29.00	0.00
-21.00	-5.00	38.00	103.00	-55.00	27.00	-9.00
-36.00	-23.00	64.00	132.00	-56.00	30.00	-16.00
-56.00	2.00	-17.00	97.00	-57.00	71.00	0.00
-52.00	-15.00	37.00	91.00	-28.00	84.00	-3.00
-40.00	-20.00	-41.00	66.00	21.00	42.00	11.00
-28.00	-16.00	-233.00	-10.00	46.00	14.00	20.00
-26.00	-28.00	-336.00	-79.00	38.00	15.00	17.00
-31.00	-24.00	-316.00	-89.00	70.00	-23.00	19.00
-30.00	-11.00	-257.00	-132.00	99.00	-58.00	11.00
-25.00	-8.00	-278.00	-122.00	58.00	-39.00	0.00
-26.00	-24.00	-58.00	33.00	4.00	0.00	-12.00
-19.00	-28.00	93.00	117.00	-17.00	18.00	-12.00
-17.00	7.00	292.00	203.00	-28.00	22.00	-11.00
-14.00	38.00	77.00	229.00	-19.00	14.00	-3.00
-40.00	35.00	-507.00	133.00	-5.00	33.00	-1.00
-51.00	27.00	-639.00	16.00	12.00	26.00	6.00
-43.00	27.00	-650.00	-115.00	45.00	18.00	-1.00
-30.00	93.00	-610.00	-142.00	62.00	27.00	0.00
-33.00	104.00	-274.00	-170.00	30.00	18.00	-10.00
-16.00	89.00	215.00	-155.00	18.00	11.00	-4.00
8.00	45.00	434.00	-147.00	10.00	15.00	16.00
30.00	29.00	451.00	-13.00	-3.00	7.00	24.00
43.00	20.00	512.00	168.00	-24.00	-25.00	-3.00
52.00	15.00	679.00	215.00	-17.00	-19.00	9.00
61.00	9.00	708.00	167.00	-8.00	-16.00	14.00
61.00	-12.00	403.00	70.00	5.00	-6.00	5.00
65.00	-14.00	210.00	-11.00	2.00	-6.00	-18.00
39.00	-23.00	91.00	-122.00	6.00	-20.00	-4.00
19.00	-30.00	-83.00	-146.00	31.00	-8.00	-13.00
13.00	10.00	-127.00	-109.00	52.00	3.00	-16.00
6.00	19.00	-67.00	-17.00	51.00	5.00	19.00
-5.00	14.00	70.00	70.00	45.00	-2.00	32.00
-9.00	-1.00	26.00	81.00	47.00	4.00	19.00
-10.00	-24.00	25.00	71.00	34.00	7.00	-1.00
-10.00	-22.00	22.00	51.00	18.00	12.00	0.00
-6.00	-15.00	-20.00	-10.00	12.00	22.00	0.00
-9.00	4.00	33.00	39.00	8.00	28.00	5.00
-8.00	56.00	41.00	65.00	2.00	37.00	-2.00
-19.00	77.00	-229.00	63.00	2.00	35.00	-10.00
-39.00	46.00	-359.00	82.00	-2.00	28.00	-15.00
-53.00	25.00	-457.00	72.00	-7.00	15.00	-24.00
-47.00	11.00	-479.00	4.00	1.00	4.00	-20.00
-33.00	-9.00	-661.00	-212.00	14.00	-3.00	-14.00
-23.00	-46.00	-458.00	-283.00	45.00	-14.00	-13.00
-3.00	-40.00	-84.00	-177.00	42.00	-19.00	-16.00
12.00	17.00	130.00	-79.00	21.00	-13.00	-20.00
18.00	24.00	134.00	-52.00	-19.00	18.00	-21.00
8.00	53.00	15.00	-90.00	-44.00	39.00	-20.00
-14.00	53.00	-16.00	-80.00	-40.00	43.00	-16.00
-19.00	43.00	-246.00	-34.00	-10.00	35.00	-15.00
-23.00	27.00	-214.00	13.00	32.00	1.00	-5.00
12.00	25.00	136.00	64.00	106.00	-43.00	12.00
28.00	29.00	365.00	139.00	129.00	-53.00	18.00
39.00	25.00	388.00	204.00	74.00	-34.00	25.00
29.00	7.00	215.00	161.00	15.00	1.00	40.00
26.00	6.00	192.00	126.00	-23.00	12.00	43.00
20.00	4.00	201.00	78.00	-45.00	10.00	36.00
5.00	3.00	141.00	21.00	-60.00	32.00	35.00
-8.00	13.00	191.00	24.00	-60.00	32.00	25.00
-5.00	2.00	286.00	77.00	-54.00	21.00	29.00
6.00	-12.00	194.00	91.00	-31.00	4.00	33.00
8.00	-8.00	16.00	92.00	-23.00	4.00	26.00
0.00	-7.00	-82.00	95.00	-35.00	24.00	30.00
-2.00	5.00	-94.00	115.00	-32.00	35.00	37.00
3.00	30.00	43.00	145.00	-12.00	30.00	22.00
15.00	39.00	59.00	101.00	-6.00	28.00	2.00
8.00	43.00	50.00	3.00	1.00	28.00	-4.00
-10.00	27.00	95.00	-61.00	12.00	1.00	-2.00
-23.00	6.00	185.00	-110.00	40.00	-26.00	-7.00
-2.00	2.00	101.00	-177.00	72.00	-22.00	-3.00
6.00	3.00	-37.00	-198.00	71.00	-6.00	-4.00
-2.00	20.00	-100.00	-132.00	47.00	12.00	-18.00
-10.00	22.00	-269.00	-110.00	37.00	21.00	-21.00
-11.00	21.00	-353.00	-119.00	22.00	21.00	-23.00
-14.00	21.00	-327.00	-141.00	15.00	19.00	-38.00
-21.00	8.00	-138.00	-51.00	9.00	18.00	-33.00
-19.00	22.00	112.00	111.00	-6.00	39.00	-14.00
-30.00	23.00	86.00	169.00	-18.00	63.00	-8.00
-31.00	13.00	-175.00	173.00	-13.00	53.00	8.00
-31.00	21.00	-225.00	132.00	29.00	17.00	-9.00
-28.00	25.00	-380.00	-46.00	69.00	2.00	-24.00
-17.00	35.00	-272.00	-103.00	120.00	-21.00	-36.00
-8.00	32.00	3.00	-129.00	124.00	-46.00	-36.00
18.00	-2.00	418.00	-62.00	59.00	-49.00	-45.00
25.00	-16.00	657.00	97.00	-5.00	-33.00	-45.00
37.00	-18.00	641.00	199.00	-36.00	-10.00	-32.00
28.00	3.00	463.00	205.00	-67.00	-3.00	4.00
25.00	27.00	275.00	138.00	-74.00	2.00	50.00
12.00	43.00	-82.00	-13.00	-67.00	21.00	65.00
8.00	18.00	-255.00	-136.00	-38.00	25.00	55.00
0.00	17.00	-211.00	-209.00	0.00	8.00	53.00
7.00	13.00	-213.00	-167.00	17.00	2.00	41.00
6.00	1.00	-156.00	-77.00	33.00	0.00	9.00
1.00	19.00	-148.00	-20.00	38.00	22.00	8.00
2.00	32.00	-29.00	95.00	26.00	41.00	18.00
0.00	33.00	188.00	147.00	14.00	41.00	7.00
-1.00	42.00	146.00	83.00	8.00	43.00	3.00
7.00	41.00	92.00	85.00	2.00	26.00	3.00
0.00	-5.00	-62.00	94.00	3.00	8.00	-2.00
-6.00	-32.00	-238.00	23.00	12.00	6.00	-19.00
4.00	-9.00	-179.00	-116.00	29.00	-7.00	-23.00
2.00	37.00	-48.00	-171.00	37.00	-3.00	-5.00
-14.00	31.00	-22.00	-74.00	29.00	8.00	-8.00
0.00	-3.00	82.00	18.00	44.00	11.00	-11.00
-5.00	-3.00	112.00	19.00	48.00	3.00	4.00
-20.00	18.00	-162.00	54.00	33.00	5.00	-18.00
-25.00	38.00	-377.00	59.00	27.00	12.00	-3.00
-23.00	54.00	-406.00	25.00	18.00	24.00	5.00
-20.00	65.00	-295.00	-15.00	6.00	20.00	0.00
-25.00	49.00	-194.00	-141.00	-8.00	5.00	-3.00
-34.00	44.00	66.00	-113.00	-14.00	-21.00	-7.00
-2.00	24.00	529.00	13.00	-18.00	-11.00	-14.00
28.00	2.00	749.00	148.00	-24.00	5.00	-14.00
37.00	-30.00	618.00	126.00	-33.00	19.00	-4.00
32.00	-39.00	348.00	54.00	-43.00	42.00	-5.00
48.00	-39.00	229.00	50.00	9.00	23.00	-2.00
45.00	-56.00	105.00	68.00	81.00	-33.00	7.00
29.00	-75.00	-60.00	27.00	74.00	-29.00	6.00
27.00	-75.00	-156.00	28.00	51.00	-6.00	3.00
22.00	-74.00	-171.00	35.00	47.00	-4.00	9.00
27.00	-72.00	-30.00	85.00	31.00	1.00	7.00
25.00	-66.00	-46.00	85.00	13.00	13.00	3.00
25.00	-95.00	69.00	101.00	5.00	12.00	3.00
26.00	-49.00	-10.00	134.00	-5.00	26.00	10.00
20.00	84.00	-271.00	11.00	-7.00	22.00	5.00
2.00	144.00	-591.00	-143.00	-8.00	14.00	-1.00
-18.00	120.00	-569.00	-190.00	-14.00	2.00	-9.00
-30.00	101.00	-529.00	-169.00	2.00	-28.00	-3.00
-41.00	78.00	-688.00	-164.00	31.00	-25.00	3.00
-31.00	43.00	-493.00	-170.00	51.00	7.00	-7.00
-18.00	31.00	-113.00	-82.00	39.00	21.00	12.00
-3.00	45.00	201.00	-17.00	26.00	11.00	16.00
12.00	48.00	531.00	-3.00	19.00	6.00	27.00
19.00	22.00	745.00	57.00	8.00	-11.00	24.00
32.00	-2.00	745.00	130.00	20.00	-12.00	10.00
44.00	-3.00	720.00	185.00	34.00	-3.00	2.00
41.00	7.00	492.00	137.00	16.00	6.00	-4.00
25.00	8.00	260.00	51.00	0.00	22.00	-7.00
6.00	11.00	76.00	17.00	-8.00	17.00	-11.00
-1.00	17.00	-64.00	-50.00	-21.00	13.00	-23.00
-7.00	8.00	-60.00	-66.00	-50.00	13.00	-21.00
-15.00	-8.00	-30.00	-51.00	-54.00	14.00	-12.00
-31.00	-14.00	-40.00	-24.00	-33.00	14.00	-5.00
-36.00	-15.00	-52.00	8.00	-8.00	12.00	-2.00
-27.00	-3.00	-83.00	33.00	-11.00	21.00	3.00
-20.00	7.00	-106.00	31.00	-18.00	19.00	11.00
-16.00	21.00	-201.00	9.00	-25.00	16.00	24.00
-19.00	8.00	-187.00	24.00	-22.00	16.00	5.00
-32.00	-2.00	-226.00	33.00	-8.00	25.00	-4.00
-27.00	13.00	7.00	125.00	-13.00	36.00	11.00
-22.00	13.00	77.00	193.00	-19.00	46.00	14.00
-19.00	24.00	-17.00	210.00	-21.00	44.00	19.00
-22.00	23.00	-138.00	138.00	-18.00	42.00	13.00
-19.00	31.00	-306.00	-20.00	0.00	31.00	10.00
-13.00	19.00	-382.00	-183.00	25.00	-1.00	7.00
-8.00	9.00	-301.00	-357.00	54.00	-25.00	-6.00
-2.00	12.00	-52.00	-236.00	56.00	-6.00	-14.00
-9.00	30.00	6.00	-51.00	35.00	5.00	-1.00
-2.00	39.00	160.00	25.00	24.00	20.00	6.00
0.00	30.00	195.00	48.00	26.00	12.00	13.00
5.00	27.00	26.00	24.00	42.00	-12.00	11.00
-7.00	15.00	52.00	-27.00	34.00	-15.00	6.00
-10.00	30.00	-129.00	-91.00	15.00	22.00	-1.00
-4.00	65.00	-292.00	-38.00	22.00	15.00	3.00
3.00	87.00	-171.00	53.00	41.00	-16.00	-4.00
-2.00	88.00	-122.00	70.00	59.00	-40.00	-5.00
-9.00	88.00	-162.00	42.00	49.00	-18.00	0.00
-8.00	69.00	-96.00	-6.00	41.00	7.00	-3.00
3.00	43.00	11.00	-58.00	58.00	0.00	0.00
7.00	14.00	147.00	-115.00	70.00	-13.00	5.00
12.00	-14.00	452.00	-31.00	32.00	-4.00	4.00
32.00	-55.00	598.00	32.00	3.00	-8.00	3.00
39.00	-62.00	638.00	110.00	-9.00	-5.00	-1.00
39.00	-49.00	416.00	87.00	-8.00	9.00	-1.00
32.00	-55.00	169.00	70.00	-7.00	33.00	-7.00
6.00	-58.00	56.00	50.00	0.00	40.00	-13.00
-3.00	-29.00	32.00	104.00	9.00	28.00	-6.00
-3.00	33.00	-25.00	107.00	20.00	9.00	2.00
-12.00	54.00	-183.00	68.00	24.00	25.00	1.00
-20.00	19.00	-150.00	35.00	-1.00	20.00	-4.00
-10.00	-21.00	9.00	50.00	13.00	18.00	-3.00
3.00	-22.00	26.00	35.00	42.00	26.00	-5.00
-12.00	3.00	-100.00	-12.00	33.00	30.00	-2.00
-34.00	7.00	-453.00	-19.00	47.00	30.00	8.00
-22.00	-14.00	-602.00	1.00	104.00	-1.00	15.00
-20.00	-16.00	-494.00	-13.00	128.00	-37.00	11.00
-15.00	25.00	-381.00	2.00	95.00	-21.00	2.00
-29.00	48.00	-87.00	35.00	26.00	11.00	-8.00
-34.00	36.00	-1.00	55.00	-3.00	10.00	-7.00
-10.00	49.00	79.00	75.00	-45.00	5.00	-3.00
17.00	48.00	142.00	-10.00	-74.00	6.00	-14.00
40.00	19.00	424.00	-154.00	-98.00	5.00	-12.00
34.00	12.00	525.00	-145.00	-92.00	-15.00	-1.00
38.00	20.00	479.00	-110.00	-49.00	-13.00	6.00
35.00	7.00	468.00	36.00	-30.00	-14.00	-3.00
28.00	13.00	439.00	92.00	-12.00	-13.00	-5.00
21.00	21.00	273.00	57.00	0.00	3.00	11.00
17.00	21.00	111.00	1.00	-5.00	11.00	7.00
11.00	23.00	91.00	-28.00	-11.00	13.00	-11.00
-8.00	0.00	44.00	-58.00	-13.00	24.00	-23.00
-6.00	0.00	53.00	-20.00	-13.00	38.00	-20.00
-1.00	12.00	240.00	143.00	2.00	48.00	-6.00
1.00	9.00	48.00	111.00	6.00	47.00	-1.00
2.00	42.00	-222.00	60.00	4.00	32.00	6.00
-10.00	41.00	-245.00	75.00	-3.00	6.00	8.00
-21.00	11.00	-380.00	-108.00	0.00	-7.00	7.00
-10.00	-1.00	-452.00	-135.00	-6.00	-1.00	0.00
-12.00	-10.00	-357.00	-32.00	-20.00	34.00	6.00
-28.00	10.00	-342.00	38.00	-5.00	55.00	14.00
-24.00	20.00	-252.00	77.00	30.00	37.00	15.00
-29.00	16.00	-175.00	76.00	64.00	13.00	17.00
-24.00	16.00	-188.00	15.00	79.00	-8.00	19.00
1.00	-7.00	-135.00	-2.00	82.00	-34.00	16.00
12.00	0.00	69.00	-94.00	75.00	-39.00	16.00
15.00	9.00	190.00	-56.00	51.00	-16.00	10.00
11.00	1.00	111.00	-43.00	32.00	-3.00	-4.00
6.00	4.00	40.00	-78.00	32.00	5.00	-9.00
-3.00	20.00	3.00	2.00	17.00	1.00	-7.00
-11.00	22.00	0.00	37.00	7.00	12.00	-8.00
-10.00	8.00	23.00	45.00	15.00	13.00	-13.00
-10.00	-7.00	135.00	78.00	13.00	3.00	-5.00
-17.00	-12.00	184.00	98.00	10.00	19.00	-12.00
-17.00	-28.00	-9.00	32.00	23.00	20.00	-13.00
-16.00	-34.00	-54.00	-52.00	31.00	15.00	-27.00
-10.00	3.00	-83.00	8.00	8.00	25.00	-27.00
5.00	38.00	-162.00	31.00	2.00	16.00	-10.00
16.00	52.00	-140.00	14.00	5.00	12.00	-10.00
17.00	57.00	-426.00	-44.00	14.00	15.00	-33.00
27.00	16.00	-413.00	3.00	12.00	5.00	-6.00
45.00	56.00	-16.00	52.00	13.00	5.00	10.00
51.00	76.00	370.00	28.00	21.00	5.00	10.00
27.00	33.00	475.00	21.00	17.00	6.00	20.00
20.00	-13.00	341.00	72.00	-21.00	15.00	32.00
39.00	-10.00	228.00	141.00	-31.00	19.00	38.00
37.00	48.00	31.00	19.00	-13.00	14.00	36.00
30.00	47.00	-48.00	-108.00	-7.00	-6.00	26.00
16.00	13.00	-95.00	-194.00	-19.00	-8.00	15.00
15.00	-5.00	77.00	-149.00	-38.00	8.00	16.00
11.00	-3.00	234.00	-72.00	-25.00	14.00	24.00
13.00	-14.00	271.00	-104.00	21.00	-6.00	24.00
14.00	-29.00	196.00	-71.00	48.00	-11.00	21.00
1.00	-24.00	122.00	4.00	59.00	-19.00	16.00
-14.00	0.00	41.00	20.00	58.00	-19.00	4.00
-15.00	-1.00	58.00	26.00	64.00	-18.00	4.00
-6.00	-7.00	77.00	68.00	78.00	-20.00	0.00
-5.00	0.00	32.00	63.00	65.00	-4.00	-15.00
-16.00	5.00	-34.00	43.00	33.00	8.00	-22.00
-32.00	3.00	-141.00	20.00	9.00	13.00	-21.00
-36.00	8.00	-239.00	28.00	5.00	10.00	-33.00
-31.00	24.00	-311.00	25.00	6.00	17.00	-40.00
-25.00	24.00	-331.00	7.00	-2.00	25.00	-42.00
-34.00	17.00	-383.00	-22.00	-12.00	37.00	-25.00
-33.00	16.00	-341.00	-57.00	-11.00	39.00	-19.00
-35.00	8.00	-264.00	-71.00	-10.00	35.00	-1.00
-26.00	-17.00	-145.00	-23.00	-10.00	34.00	1.00
-25.00	16.00	-277.00	39.00	-18.00	41.00	13.00
-13.00	39.00	-96.00	149.00	-21.00	31.00	-1.00
7.00	95.00	-66.00	158.00	-8.00	20.00	-5.00
4.00	142.00	140.00	156.00	7.00	14.00	-1.00
-1.00	127.00	412.00	134.00	14.00	-7.00	2.00
20.00	80.00	715.00	88.00	19.00	-2.00	1.00
50.00	40.00	725.00	68.00	33.00	-13.00	7.00
66.00	-13.00	830.00	69.00	75.00	-38.00	5.00
64.00	-28.00	600.00	5.00	103.00	-12.00	2.00
43.00	-30.00	250.00	-24.00	72.00	1.00	-5.00
23.00	-11.00	28.00	-64.00	34.00	12.00	-16.00
12.00	-40.00	-111.00	-73.00	11.00	7.00	-26.00
9.00	-44.00	-169.00	-14.00	0.00	0.00	-32.00
1.00	-32.00	-165.00	-17.00	-11.00	-4.00	-24.00
-6.00	-15.00	-166.00	-47.00	-38.00	-2.00	-19.00
-10.00	3.00	-149.00	-23.00	-46.00	-1.00	-10.00
-12.00	5.00	-146.00	1.00	-47.00	-7.00	0.00
-14.00	-11.00	-150.00	2.00	-52.00	3.00	1.00
-19.00	-8.00	-172.00	-22.00	-73.00	5.00	9.00
-22.00	7.00	-144.00	-65.00	-84.00	20.00	15.00
-23.00	-1.00	-235.00	-55.00	-69.00	27.00	16.00
-32.00	-10.00	-345.00	-48.00	-62.00	40.00	22.00
-35.00	-5.00	-306.00	-50.00	-53.00	57.00	16.00
-31.00	11.00	-98.00	6.00	-16.00	30.00	16.00
-24.00	13.00	-122.00	4.00	46.00	-12.00	24.00
-12.00	4.00	-41.00	38.00	87.00	-9.00	23.00
-1.00	-1.00	87.00	92.00	90.00	2.00	29.00
-8.00	-6.00	-12.00	117.00	60.00	-6.00	18.00
-8.00	13.00	13.00	146.00	37.00	8.00	8.00
-6.00	38.00	155.00	89.00	22.00	17.00	14.00
-7.00	64.00	147.00	-52.00	13.00	21.00	5.00
-5.00	69.00	94.00	-76.00	3.00	25.00	-4.00
-6.00	86.00	-69.00	-75.00	7.00	32.00	-1.00
-8.00	67.00	-263.00	-104.00	9.00	31.00	-1.00
7.00	23.00	-155.00	-31.00	65.00	-2.00	9.00
9.00	-14.00	62.00	58.00	101.00	-37.00	1.00
11.00	-11.00	153.00	44.00	99.00	-37.00	2.00
20.00	0.00	219.00	-20.00	73.00	-24.00	-10.00
14.00	9.00	193.00	-57.00	32.00	-12.00	-15.00
15.00	-3.00	60.00	-71.00	8.00	-6.00	0.00
29.00	2.00	-27.00	-8.00	-3.00	3.00	-7.00
22.00	0.00	-50.00	25.00	-9.00	16.00	-13.00
8.00	-4.00	-61.00	20.00	-20.00	25.00	-6.00
3.00	9.00	-46.00	26.00	-16.00	19.00	-5.00
-4.00	3.00	-148.00	28.00	32.00	-5.00	1.00
-8.00	2.00	-298.00	39.00	63.00	-23.00	9.00
-4.00	14.00	-283.00	24.00	42.00	10.00	0.00
-2.00	21.00	-117.00	-43.00	29.00	34.00	-2.00
-11.00	33.00	-32.00	-96.00	25.00	37.00	1.00
-16.00	64.00	41.00	-97.00	26.00	24.00	12.00
-24.00	33.00	148.00	-64.00	13.00	6.00	12.00
1.00	21.00	342.00	91.00	-1.00	-5.00	9.00
-1.00	44.00	422.00	178.00	-14.00	0.00	-20.00
-8.00	70.00	263.00	126.00	-15.00	25.00	-14.00
-9.00	51.00	145.00	113.00	-12.00	34.00	0.00
-10.00	16.00	-18.00	114.00	-14.00	34.00	7.00
6.00	-6.00	-225.00	73.00	-17.00	31.00	3.00
-1.00	3.00	-293.00	-100.00	-21.00	41.00	-9.00
-13.00	39.00	-173.00	-129.00	-6.00	43.00	2.00
-15.00	77.00	-112.00	-72.00	-9.00	39.00	18.00
-21.00	52.00	-84.00	3.00	-5.00	33.00	28.00
-21.00	-4.00	49.00	-9.00	30.00	20.00	23.00
6.00	-42.00	150.00	-22.00	37.00	-5.00	11.00
40.00	-47.00	444.00	35.00	22.00	-34.00	12.00
43.00	-50.00	737.00	45.00	-4.00	-14.00	9.00
34.00	-48.00	511.00	11.00	-12.00	20.00	4.00
33.00	-30.00	309.00	37.00	6.00	23.00	-6.00
4.00	-21.00	106.00	19.00	17.00	14.00	-7.00
-40.00	-17.00	-38.00	5.00	20.00	12.00	-7.00
-28.00	-14.00	-57.00	23.00	62.00	-4.00	-9.00
-12.00	-10.00	-11.00	41.00	93.00	-11.00	-12.00
-5.00	-10.00	-96.00	31.00	82.00	-6.00	-18.00
-5.00	-8.00	-214.00	12.00	63.00	8.00	-21.00
11.00	10.00	-360.00	-23.00	37.00	17.00	-25.00
19.00	38.00	-347.00	-19.00	10.00	21.00	-28.00
18.00	67.00	-223.00	114.00	-19.00	29.00	-26.00
23.00	59.00	-80.00	126.00	-45.00	33.00	-23.00
24.00	36.00	-69.00	37.00	-55.00	25.00	-15.00
32.00	15.00	18.00	48.00	-65.00	8.00	-12.00
46.00	18.00	-235.00	-67.00	-34.00	-11.00	-12.00
46.00	37.00	-367.00	-228.00	0.00	-28.00	-7.00
32.00	54.00	-308.00	-279.00	-1.00	-19.00	-1.00
14.00	54.00	-210.00	-200.00	-16.00	-4.00	5.00
2.00	12.00	-3.00	-57.00	-11.00	-2.00	8.00
9.00	-3.00	271.00	130.00	-3.00	-13.00	9.00
19.00	2.00	293.00	210.00	9.00	10.00	12.00
14.00	24.00	98.00	154.00	20.00	23.00	9.00
1.00	42.00	-6.00	54.00	24.00	24.00	4.00
-10.00	14.00	19.00	22.00	18.00	10.00	10.00
-7.00	6.00	74.00	11.00	27.00	-12.00	16.00
-1.00	7.00	181.00	1.00	23.00	-26.00	10.00
-7.00	3.00	174.00	16.00	-5.00	-12.00	-11.00
-7.00	-5.00	111.00	-12.00	-24.00	3.00	-5.00
6.00	-12.00	58.00	-22.00	-24.00	16.00	7.00
0.00	-9.00	-33.00	9.00	-10.00	16.00	-3.00
-13.00	-2.00	-141.00	17.00	0.00	19.00	-7.00
-38.00	-1.00	-258.00	-12.00	1.00	24.00	-9.00
-41.00	5.00	-190.00	-7.00	26.00	22.00	-6.00
-30.00	4.00	-47.00	20.00	67.00	2.00	-2.00
-30.00	14.00	-97.00	3.00	80.00	-11.00	0.00
-40.00	-3.00	-105.00	0.00	73.00	-13.00	-9.00
-42.00	-33.00	-150.00	-22.00	57.00	-10.00	-6.00
-29.00	-48.00	-27.00	-20.00	28.00	6.00	9.00
-23.00	-23.00	140.00	20.00	5.00	21.00	11.00
-27.00	33.00	222.00	40.00	-15.00	21.00	16.00
-25.00	47.00	357.00	148.00	-34.00	19.00	15.00
-8.00	81.00	264.00	151.00	-32.00	25.00	21.00
4.00	48.00	206.00	89.00	-33.00	21.00	24.00
2.00	45.00	70.00	58.00	-21.00	0.00	25.00
7.00	42.00	-49.00	13.00	-5.00	-27.00	12.00
10.00	24.00	58.00	-67.00	0.00	-9.00	8.00
4.00	15.00	20.00	-114.00	6.00	10.00	4.00
10.00	26.00	33.00	-13.00	21.00	9.00	2.00
11.00	38.00	56.00	36.00	28.00	0.00	8.00
14.00	14.00	121.00	9.00	33.00	2.00	16.00
15.00	23.00	101.00	24.00	31.00	7.00	0.00
6.00	50.00	-110.00	6.00	7.00	15.00	-11.00
-1.00	49.00	-199.00	-70.00	-4.00	15.00	-9.00
-3.00	28.00	-360.00	-157.00	3.00	10.00	-19.00
-18.00	19.00	-486.00	-235.00	17.00	6.00	-15.00
-27.00	23.00	-498.00	-225.00	12.00	19.00	-15.00
-8.00	18.00	-260.00	-123.00	27.00	22.00	-18.00
5.00	14.00	-38.00	-44.00	51.00	10.00	-6.00
11.00	-8.00	203.00	10.00	39.00	6.00	1.00
8.00	-21.00	404.00	27.00	11.00	8.00	3.00
12.00	-30.00	510.00	50.00	4.00	-1.00	-2.00
18.00	-17.00	532.00	80.00	5.00	-1.00	-11.00
18.00	11.00	288.00	124.00	13.00	0.00	-3.00
14.00	6.00	46.00	133.00	49.00	-18.00	0.00
4.00	-13.00	-162.00	121.00	41.00	-11.00	9.00
2.00	-17.00	-191.00	101.00	30.00	6.00	-1.00
4.00	19.00	-150.00	80.00	23.00	26.00	-9.00
2.00	23.00	-207.00	109.00	24.00	33.00	-12.00
0.00	12.00	-142.00	111.00	20.00	31.00	-16.00
-8.00	-5.00	-187.00	44.00	34.00	19.00	-13.00
-6.00	4.00	-167.00	80.00	29.00	3.00	-7.00
5.00	-10.00	11.00	68.00	19.00	-14.00	1.00
15.00	-9.00	214.00	35.00	19.00	-16.00	3.00
17.00	6.00	89.00	-104.00	-3.00	-1.00	-3.00
15.00	7.00	130.00	-162.00	-19.00	14.00	-2.00
10.00	-7.00	108.00	-109.00	-22.00	36.00	0.00
6.00	-5.00	27.00	-45.00	-34.00	38.00	5.00
2.00	3.00	-38.00	-49.00	-38.00	43.00	4.00
-2.00	16.00	-37.00	-9.00	-6.00	14.00	9.00
4.00	25.00	29.00	25.00	49.00	-25.00	15.00
2.00	22.00	132.00	61.00	61.00	-24.00	17.00
4.00	20.00	227.00	95.00	37.00	2.00	16.00
3.00	14.00	204.00	103.00	17.00	17.00	15.00
-4.00	13.00	81.00	59.00	-6.00	11.00	24.00
-7.00	1.00	19.00	46.00	-20.00	-6.00	29.00
0.00	18.00	4.00	-19.00	-14.00	6.00	12.00
8.00	15.00	24.00	-12.00	0.00	13.00	-8.00
10.00	-8.00	56.00	-21.00	1.00	15.00	-14.00
5.00	-16.00	82.00	-16.00	-2.00	19.00	-11.00
-10.00	39.00	-152.00	67.00	-11.00	28.00	-26.00
-28.00	117.00	-438.00	81.00	-19.00	28.00	-32.00
-44.00	107.00	-534.00	28.00	-13.00	27.00	-33.00
-49.00	107.00	-510.00	-26.00	-13.00	24.00	-29.00
-36.00	64.00	-288.00	-99.00	-3.00	-1.00	-19.00
-21.00	37.00	115.00	-52.00	32.00	-18.00	-3.00
5.00	41.00	418.00	-87.00	53.00	-23.00	-3.00
26.00	56.00	357.00	-134.00	59.00	-18.00	2.00
16.00	38.00	220.00	-40.00	55.00	-6.00	-3.00
19.00	22.00	13.00	28.00	33.00	13.00	-4.00
15.00	13.00	-45.00	35.00	34.00	12.00	-5.00
6.00	-3.00	-20.00	-48.00	14.00	22.00	-5.00
8.00	-21.00	53.00	8.00	2.00	20.00	-12.00
13.00	-35.00	220.00	74.00	5.00	2.00	-9.00
0.00	-45.00	153.00	29.00	2.00	-8.00	6.00
-11.00	-40.00	23.00	-50.00	5.00	2.00	6.00
-7.00	-37.00	-78.00	-107.00	13.00	4.00	-2.00
-13.00	-37.00	-132.00	-72.00	-12.00	15.00	-1.00
-13.00	-34.00	-160.00	-10.00	-15.00	22.00	12.00
-13.00	-31.00	-142.00	25.00	-14.00	22.00	15.00
-28.00	-33.00	-229.00	29.00	-31.00	31.00	17.00
-29.00	-27.00	-290.00	21.00	3.00	29.00	22.00
-27.00	-27.00	-272.00	43.00	48.00	24.00	13.00
-26.00	-2.00	-195.00	34.00	51.00	12.00	3.00
-31.00	-1.00	-104.00	-19.00	26.00	17.00	2.00
-22.00	12.00	9.00	-81.00	18.00	23.00	-1.00
-8.00	25.00	100.00	-95.00	34.00	9.00	0.00
9.00	27.00	433.00	32.00	34.00	-14.00	2.00
12.00	54.00	367.00	119.00	35.00	-11.00	2.00
