
	-3.00	14.00	380.00	-76.00	-21.00	-5.00	2.00
	1.00	2.00	133.00	-31.00	-7.00	-17.00	7.00
	8.00	3.00	-85.00	41.00	27.00	-13.00	-12.00
	16.00	15.00	-175.00	82.00	43.00	-2.00	-30.00
	20.00	20.00	-94.00	113.00	69.00	10.00	-14.00
	15.00	29.00	116.00	74.00	105.00	5.00	5.00
	12.00	18.00	310.00	33.00	69.00	19.00	8.00
	18.00	14.00	290.00	31.00	6.00	25.00	16.00
	3.00	2.00	46.00	51.00	-39.00	22.00	13.00
	-6.00	6.00	-154.00	63.00	-35.00	16.00	-6.00
	-13.00	17.00	-337.00	40.00	7.00	15.00	-8.00
	-7.00	12.00	-420.00	17.00	24.00	-15.00	7.00
	-5.00	18.00	-363.00	15.00	11.00	-19.00	8.00
	-3.00	12.00	-150.00	-10.00	-13.00	-38.00	6.00
	2.00	14.00	75.00	26.00	-21.00	-33.00	18.00
	-5.00	6.00	267.00	87.00	-30.00	-23.00	2.00
	-18.00	9.00	317.00	63.00	-55.00	9.00	-13.00
	-33.00	24.00	69.00	-16.00	-30.00	3.00	14.00
	-26.00	17.00	-108.00	-17.00	-2.00	-7.00	6.00
	-7.00	17.00	-4.00	-60.00	-40.00	13.00	0.00
	-10.00	20.00	35.00	-97.00	-38.00	55.00	-12.00
	-21.00	30.00	42.00	-61.00	-13.00	47.00	-47.00
	-23.00	10.00	79.00	-8.00	-8.00	38.00	-32.00
	-8.00	-3.00	92.00	-21.00	-10.00	31.00	-44.00
	0.00	6.00	-96.00	-40.00	9.00	15.00	-38.00
	6.00	8.00	-202.00	17.00	21.00	9.00	-33.00
	8.00	19.00	-334.00	36.00	20.00	4.00	-2.00
	7.00	26.00	-265.00	42.00	14.00	-15.00	11.00
	19.00	19.00	-219.00	41.00	12.00	-24.00	5.00
	32.00	19.00	-137.00	14.00	25.00	-16.00	1.00
	35.00	18.00	-29.00	-7.00	43.00	-2.00	8.00
	38.00	16.00	73.00	15.00	93.00	16.00	16.00
	42.00	17.00	57.00	64.00	120.00	34.00	10.00
	45.00	9.00	120.00	22.00	66.00	16.00	2.00
	42.00	-1.00	222.00	3.00	20.00	-8.00	5.00
	26.00	9.00	130.00	25.00	17.00	3.00	16.00
	11.00	22.00	124.00	41.00	19.00	25.00	13.00
	12.00	24.00	26.00	45.00	-2.00	-19.00	1.00
	17.00	21.00	-314.00	56.00	-9.00	-52.00	11.00
	23.00	12.00	-321.00	1.00	4.00	-51.00	15.00
	13.00	25.00	-119.00	-30.00	13.00	-30.00	18.00
	8.00	25.00	115.00	-3.00	0.00	39.00	24.00
	12.00	11.00	389.00	10.00	-12.00	46.00	28.00
	4.00	-10.00	591.00	-46.00	-24.00	48.00	9.00
	-4.00	0.00	579.00	-87.00	-15.00	65.00	12.00
	-15.00	1.00	187.00	15.00	28.00	35.00	6.00
	-24.00	11.00	-66.00	80.00	42.00	24.00	-32.00
	-21.00	7.00	-131.00	44.00	23.00	12.00	-47.00
	-34.00	4.00	-186.00	71.00	3.00	-13.00	-32.00
	-53.00	-4.00	-227.00	98.00	4.00	-10.00	-2.00
	-64.00	9.00	-162.00	-16.00	5.00	-6.00	-2.00
	-61.00	27.00	-45.00	-124.00	-13.00	-2.00	6.00
	-57.00	41.00	-38.00	-117.00	5.00	-6.00	12.00
	-67.00	42.00	33.00	-61.00	27.00	17.00	17.00
	-72.00	25.00	139.00	-43.00	39.00	6.00	11.00
	-93.00	19.00	239.00	-3.00	20.00	-21.00	-7.00
	-108.00	13.00	219.00	56.00	40.00	96.00	-9.00
	-110.00	16.00	10.00	88.00	56.00	100.00	4.00
	-123.00	33.00	-199.00	67.00	20.00	-31.00	16.00
	-134.00	38.00	-456.00	26.00	10.00	-56.00	18.00
	-114.00	24.00	-571.00	30.00	15.00	-11.00	16.00
	-104.00	-2.00	-346.00	-18.00	0.00	4.00	9.00
	-98.00	-3.00	-36.00	-2.00	-1.00	21.00	-3.00
	-91.00	2.00	117.00	21.00	-9.00	40.00	-13.00
	-77.00	16.00	293.00	10.00	5.00	33.00	-10.00
	-61.00	36.00	234.00	-6.00	-4.00	24.00	-4.00
	-38.00	60.00	1.00	-28.00	17.00	13.00	4.00
	-10.00	49.00	-62.00	-55.00	19.00	-22.00	7.00
	14.00	23.00	10.00	-27.00	7.00	-17.00	7.00
	52.00	19.00	111.00	4.00	-7.00	-10.00	6.00
	78.00	-2.00	255.00	-7.00	-1.00	-8.00	4.00
	83.00	-22.00	257.00	-27.00	14.00	31.00	-4.00
	98.00	1.00	117.00	-10.00	2.00	72.00	-7.00
	114.00	-7.00	-201.00	9.00	-4.00	40.00	-3.00
	121.00	-6.00	-267.00	6.00	6.00	29.00	-1.00
	130.00	9.00	-180.00	-19.00	9.00	2.00	-3.00
	134.00	10.00	-79.00	56.00	9.00	-7.00	2.00
	133.00	13.00	3.00	108.00	7.00	-1.00	13.00
	119.00	10.00	85.00	74.00	-3.00	-32.00	12.00
	115.00	3.00	202.00	11.00	1.00	-43.00	6.00
	117.00	1.00	155.00	-10.00	3.00	-45.00	8.00
	119.00	-7.00	48.00	20.00	-7.00	-12.00	-4.00
	126.00	4.00	109.00	-56.00	5.00	-2.00	-12.00
	133.00	15.00	191.00	-109.00	6.00	20.00	-25.00
	131.00	9.00	102.00	-72.00	13.00	30.00	-34.00
	115.00	2.00	-71.00	9.00	16.00	13.00	-27.00
	99.00	-6.00	-235.00	30.00	18.00	-10.00	-2.00
	68.00	13.00	-201.00	49.00	30.00	-4.00	12.00
	38.00	22.00	-175.00	79.00	30.00	7.00	17.00
	34.00	12.00	-153.00	83.00	20.00	-15.00	-18.00
	6.00	3.00	45.00	40.00	6.00	3.00	-15.00
	-26.00	6.00	118.00	31.00	-9.00	64.00	11.00
	-36.00	11.00	71.00	38.00	-6.00	53.00	14.00
	-43.00	16.00	66.00	-10.00	17.00	36.00	4.00
	-55.00	9.00	31.00	-63.00	24.00	17.00	-7.00
	-57.00	8.00	26.00	-5.00	16.00	3.00	1.00
	-49.00	2.00	-16.00	62.00	19.00	3.00	-7.00
	-42.00	-2.00	-7.00	46.00	32.00	27.00	1.00
	-32.00	1.00	73.00	-16.00	44.00	-6.00	-3.00
	-26.00	9.00	66.00	-33.00	49.00	-18.00	-13.00
	-30.00	24.00	-59.00	-30.00	31.00	-19.00	-5.00
	-33.00	24.00	-19.00	-36.00	9.00	-15.00	11.00
	-30.00	8.00	35.00	-17.00	-4.00	32.00	4.00
	-22.00	14.00	91.00	-4.00	-21.00	19.00	-8.00
	-23.00	15.00	14.00	5.00	-1.00	0.00	-5.00
	-21.00	12.00	-240.00	49.00	32.00	-24.00	4.00
	-23.00	1.00	-287.00	72.00	12.00	-24.00	12.00
	-35.00	10.00	-297.00	67.00	20.00	5.00	13.00
	-31.00	12.00	-196.00	39.00	55.00	6.00	4.00
	-34.00	11.00	-4.00	5.00	97.00	1.00	12.00
	-41.00	12.00	190.00	-3.00	65.00	19.00	3.00
	-44.00	14.00	162.00	16.00	32.00	33.00	1.00
	-49.00	15.00	129.00	14.00	4.00	15.00	5.00
	-51.00	8.00	26.00	28.00	-31.00	12.00	24.00
	-38.00	9.00	-155.00	13.00	-59.00	-21.00	9.00
	-27.00	16.00	-180.00	43.00	-91.00	-7.00	0.00
	-27.00	23.00	-88.00	18.00	-75.00	46.00	0.00
	-23.00	29.00	65.00	-8.00	-47.00	23.00	-38.00
	-21.00	22.00	226.00	-37.00	-35.00	-11.00	-37.00
	-7.00	11.00	293.00	-85.00	-28.00	-5.00	-25.00
	0.00	21.00	279.00	-79.00	-13.00	-12.00	-25.00
	4.00	22.00	195.00	-7.00	27.00	5.00	-8.00
	-15.00	12.00	135.00	-10.00	73.00	35.00	0.00
	-26.00	16.00	0.00	-16.00	89.00	47.00	4.00
	-36.00	5.00	-241.00	47.00	80.00	35.00	8.00
	-33.00	-9.00	-213.00	58.00	48.00	8.00	12.00
	-12.00	4.00	-65.00	5.00	21.00	-14.00	21.00
	0.00	-2.00	-31.00	2.00	11.00	-15.00	26.00
	-1.00	2.00	-112.00	62.00	7.00	-18.00	19.00
	-8.00	31.00	-35.00	54.00	-12.00	-9.00	13.00
	-4.00	35.00	-54.00	29.00	3.00	-16.00	13.00
	3.00	24.00	-66.00	4.00	12.00	19.00	16.00
	11.00	14.00	52.00	4.00	-1.00	2.00	1.00
	24.00	6.00	192.00	29.00	12.00	-14.00	-23.00
	13.00	10.00	301.00	-16.00	40.00	-6.00	-36.00
	1.00	-1.00	360.00	-34.00	35.00	4.00	-29.00
	-6.00	5.00	279.00	4.00	34.00	14.00	-12.00
	-1.00	18.00	111.00	36.00	14.00	30.00	-3.00
	-11.00	27.00	-60.00	47.00	-5.00	20.00	-9.00
	-20.00	32.00	-172.00	0.00	-32.00	35.00	-4.00
	-18.00	28.00	-275.00	-33.00	-15.00	34.00	-5.00
	-10.00	23.00	-283.00	-31.00	1.00	41.00	-3.00
	1.00	31.00	-161.00	9.00	5.00	21.00	-9.00
	17.00	23.00	-9.00	-22.00	-14.00	-14.00	-9.00
	26.00	26.00	113.00	-69.00	-12.00	-17.00	-3.00
	13.00	25.00	235.00	-97.00	9.00	0.00	-5.00
	9.00	11.00	272.00	-86.00	8.00	11.00	-1.00
	6.00	13.00	77.00	-13.00	20.00	27.00	2.00
	-3.00	20.00	-89.00	70.00	40.00	15.00	12.00
	-2.00	19.00	-100.00	122.00	38.00	20.00	21.00
	-2.00	12.00	-44.00	103.00	40.00	12.00	16.00
	-5.00	6.00	-34.00	41.00	23.00	37.00	7.00
	8.00	13.00	-168.00	-3.00	27.00	63.00	8.00
	18.00	8.00	-511.00	-9.00	18.00	-29.00	8.00
	19.00	-17.00	-435.00	-28.00	8.00	-64.00	15.00
	24.00	-9.00	-165.00	-17.00	30.00	-27.00	15.00
	25.00	-6.00	86.00	25.00	36.00	-13.00	0.00
	27.00	-4.00	307.00	18.00	35.00	-35.00	0.00
	20.00	8.00	461.00	-3.00	15.00	-35.00	3.00
	7.00	19.00	269.00	-17.00	1.00	-7.00	-5.00
	-2.00	23.00	-90.00	5.00	15.00	30.00	-7.00
	5.00	19.00	-106.00	18.00	59.00	45.00	-5.00
	14.00	13.00	-11.00	7.00	24.00	26.00	-1.00
	10.00	13.00	227.00	-48.00	8.00	32.00	9.00
	6.00	19.00	296.00	-96.00	7.00	52.00	1.00
	-7.00	30.00	134.00	-66.00	0.00	35.00	-19.00
	-18.00	27.00	-21.00	20.00	-12.00	60.00	-26.00
	-24.00	21.00	-59.00	39.00	-19.00	15.00	-9.00
	-24.00	17.00	-190.00	75.00	9.00	0.00	15.00
	-14.00	12.00	-230.00	52.00	20.00	-5.00	14.00
	-18.00	12.00	-190.00	11.00	0.00	22.00	2.00
	-14.00	13.00	-136.00	37.00	0.00	1.00	-11.00
	-1.00	19.00	32.00	51.00	-10.00	-30.00	-12.00
	6.00	11.00	215.00	-29.00	1.00	-24.00	-3.00
	0.00	11.00	159.00	-5.00	15.00	10.00	7.00
	1.00	-2.00	23.00	58.00	0.00	-18.00	9.00
	14.00	3.00	64.00	21.00	2.00	-9.00	8.00
	21.00	0.00	102.00	-50.00	3.00	-12.00	5.00
	17.00	10.00	82.00	-51.00	20.00	25.00	12.00
	15.00	19.00	60.00	17.00	20.00	57.00	15.00
	9.00	29.00	-53.00	92.00	20.00	93.00	24.00
	4.00	27.00	-52.00	55.00	23.00	49.00	25.00
	-5.00	26.00	-68.00	11.00	20.00	-1.00	16.00
	-3.00	34.00	-103.00	22.00	24.00	13.00	2.00
	-5.00	26.00	-272.00	47.00	32.00	16.00	-27.00
	-8.00	8.00	-371.00	14.00	21.00	-28.00	-38.00
	-10.00	-23.00	-183.00	-43.00	9.00	-11.00	-23.00
	-4.00	-22.00	-48.00	-22.00	-1.00	-7.00	-13.00
	-9.00	4.00	49.00	28.00	17.00	6.00	-13.00
	-4.00	8.00	77.00	78.00	21.00	37.00	-11.00
	10.00	17.00	145.00	48.00	24.00	28.00	2.00
	3.00	25.00	88.00	-19.00	14.00	-1.00	15.00
	-4.00	29.00	71.00	-39.00	1.00	-3.00	24.00
	-5.00	24.00	243.00	-55.00	3.00	-19.00	3.00
	-6.00	23.00	162.00	9.00	-15.00	-7.00	-11.00
	-8.00	19.00	2.00	15.00	1.00	-12.00	-3.00
	1.00	13.00	8.00	-3.00	12.00	-7.00	-8.00
	1.00	19.00	34.00	-7.00	10.00	-13.00	-18.00
	2.00	18.00	6.00	-3.00	15.00	-10.00	4.00
	-7.00	15.00	-104.00	5.00	17.00	2.00	8.00
	-12.00	4.00	-77.00	5.00	16.00	13.00	0.00
	-1.00	3.00	-48.00	38.00	4.00	44.00	8.00
	9.00	-4.00	-113.00	20.00	10.00	4.00	21.00
	9.00	-2.00	-149.00	16.00	18.00	-27.00	14.00
	12.00	13.00	-121.00	28.00	28.00	-27.00	3.00
	6.00	15.00	-239.00	44.00	15.00	-13.00	-21.00
	8.00	4.00	-327.00	58.00	15.00	-23.00	-3.00
	-4.00	12.00	-116.00	50.00	14.00	-12.00	8.00
	-11.00	14.00	158.00	14.00	-8.00	7.00	3.00
	-5.00	5.00	330.00	17.00	-4.00	23.00	3.00
	3.00	7.00	448.00	11.00	-19.00	31.00	-15.00
	-5.00	13.00	406.00	-76.00	0.00	4.00	-14.00
	-15.00	14.00	248.00	-81.00	24.00	20.00	11.00
	-12.00	10.00	-6.00	4.00	38.00	11.00	-1.00
	4.00	12.00	-98.00	33.00	36.00	9.00	13.00
	1.00	21.00	-50.00	6.00	28.00	24.00	12.00
	2.00	24.00	12.00	2.00	5.00	44.00	5.00
	-2.00	9.00	58.00	-23.00	-5.00	17.00	15.00
	5.00	8.00	-49.00	-51.00	9.00	18.00	16.00
	8.00	26.00	-82.00	-35.00	-6.00	15.00	5.00
	11.00	20.00	-160.00	22.00	-8.00	15.00	-5.00
	0.00	15.00	-215.00	82.00	-6.00	2.00	0.00
	7.00	1.00	-39.00	85.00	-26.00	-31.00	-13.00
	8.00	-3.00	164.00	67.00	-3.00	-29.00	-15.00
	-6.00	-12.00	160.00	39.00	48.00	4.00	-5.00
	-10.00	4.00	-8.00	-17.00	70.00	11.00	-2.00
	-4.00	15.00	-65.00	-36.00	56.00	27.00	-9.00
	-3.00	20.00	70.00	-55.00	39.00	34.00	-5.00
	-5.00	27.00	287.00	-58.00	12.00	26.00	-6.00
	-11.00	14.00	316.00	9.00	-18.00	28.00	10.00
	-14.00	27.00	175.00	46.00	-38.00	11.00	7.00
	-11.00	21.00	-62.00	21.00	-45.00	14.00	-6.00
	0.00	5.00	-277.00	15.00	-58.00	7.00	-2.00
	2.00	-8.00	-289.00	11.00	-36.00	-27.00	4.00
	-3.00	-4.00	-175.00	-2.00	-13.00	-12.00	13.00
	-8.00	18.00	13.00	-68.00	22.00	19.00	5.00
	-7.00	31.00	63.00	14.00	36.00	12.00	4.00
	-1.00	16.00	73.00	86.00	32.00	24.00	5.00
	9.00	6.00	-10.00	47.00	47.00	27.00	2.00
	7.00	5.00	-28.00	-8.00	16.00	11.00	-3.00
	1.00	21.00	-114.00	11.00	-7.00	23.00	-10.00
	6.00	22.00	-104.00	8.00	-1.00	10.00	-15.00
	7.00	2.00	-26.00	38.00	7.00	17.00	2.00
	-7.00	7.00	-212.00	91.00	19.00	-22.00	5.00
	-16.00	18.00	-299.00	119.00	24.00	-22.00	12.00
	-18.00	22.00	-144.00	53.00	36.00	-18.00	3.00
	-10.00	21.00	-24.00	-24.00	35.00	-41.00	-29.00
	-7.00	5.00	195.00	-93.00	32.00	-24.00	8.00
	-5.00	6.00	424.00	-172.00	-2.00	36.00	27.00
	-11.00	9.00	376.00	-224.00	0.00	96.00	12.00
	-14.00	23.00	202.00	-199.00	45.00	69.00	9.00
	-7.00	32.00	-82.00	-74.00	86.00	82.00	4.00
	6.00	20.00	-168.00	40.00	62.00	22.00	-1.00
	4.00	22.00	-92.00	68.00	35.00	1.00	2.00
	15.00	24.00	7.00	58.00	29.00	-9.00	0.00
	14.00	14.00	16.00	92.00	17.00	-19.00	2.00
	14.00	3.00	-62.00	85.00	9.00	-31.00	10.00
	10.00	-3.00	-226.00	55.00	11.00	-38.00	6.00
	15.00	-3.00	-528.00	81.00	25.00	-41.00	-6.00
	34.00	-16.00	-418.00	24.00	27.00	-12.00	-23.00
	35.00	-14.00	-68.00	-72.00	9.00	-23.00	-18.00
	30.00	16.00	103.00	-61.00	-8.00	-33.00	-7.00
	27.00	34.00	460.00	-21.00	-13.00	12.00	4.00
	25.00	16.00	805.00	-65.00	-47.00	29.00	10.00
	16.00	15.00	666.00	-42.00	-33.00	44.00	14.00
	17.00	23.00	468.00	6.00	-6.00	20.00	13.00
	18.00	17.00	350.00	8.00	19.00	29.00	3.00
	13.00	19.00	175.00	24.00	35.00	48.00	-6.00
	-7.00	24.00	-102.00	37.00	14.00	50.00	-2.00
	-28.00	29.00	-224.00	30.00	-6.00	33.00	-8.00
	-38.00	30.00	-279.00	58.00	-16.00	14.00	3.00
	-43.00	32.00	-263.00	79.00	-9.00	-2.00	-3.00
	-39.00	25.00	-227.00	86.00	-6.00	-34.00	-10.00
	-39.00	11.00	-281.00	141.00	-5.00	-30.00	-13.00
	-34.00	-4.00	-237.00	126.00	-19.00	-20.00	0.00
	-31.00	7.00	-203.00	72.00	-25.00	-27.00	3.00
	-27.00	14.00	-123.00	-15.00	-30.00	-9.00	5.00
	-17.00	12.00	21.00	-96.00	-27.00	50.00	-5.00
	-3.00	9.00	99.00	-100.00	0.00	44.00	4.00
	2.00	16.00	75.00	-87.00	24.00	6.00	13.00
	4.00	15.00	-47.00	-33.00	24.00	-6.00	17.00
	13.00	18.00	-161.00	18.00	34.00	-18.00	10.00
	20.00	23.00	-246.00	49.00	34.00	-32.00	6.00
	32.00	18.00	-284.00	40.00	34.00	-39.00	27.00
	38.00	12.00	-193.00	47.00	30.00	29.00	29.00
	25.00	4.00	-71.00	6.00	57.00	63.00	1.00
	23.00	6.00	16.00	-32.00	46.00	44.00	-27.00
	14.00	7.00	231.00	-54.00	22.00	35.00	-27.00
	3.00	14.00	414.00	-33.00	23.00	38.00	-31.00
	0.00	18.00	359.00	-2.00	25.00	25.00	-14.00
	-5.00	19.00	331.00	-17.00	46.00	4.00	-10.00
	-12.00	18.00	218.00	-9.00	21.00	25.00	3.00
	-16.00	12.00	102.00	3.00	9.00	15.00	1.00
	-8.00	13.00	43.00	20.00	9.00	-8.00	-12.00
	-7.00	15.00	18.00	58.00	2.00	-29.00	-20.00
	-4.00	18.00	-21.00	93.00	-9.00	-41.00	-10.00
	4.00	11.00	-69.00	59.00	-14.00	-71.00	1.00
	12.00	-9.00	-117.00	27.00	-18.00	-59.00	11.00
	11.00	-12.00	-105.00	0.00	-24.00	-46.00	21.00
	24.00	-2.00	-92.00	4.00	-10.00	-12.00	35.00
	18.00	11.00	-55.00	-49.00	13.00	55.00	25.00
	3.00	24.00	-34.00	-105.00	-8.00	90.00	6.00
	-12.00	29.00	-126.00	-36.00	-15.00	30.00	4.00
	-29.00	32.00	-112.00	68.00	-9.00	-19.00	-5.00
	-35.00	34.00	-140.00	116.00	16.00	2.00	-12.00
	-26.00	26.00	-161.00	114.00	36.00	-3.00	2.00
	-12.00	11.00	-128.00	97.00	25.00	-3.00	1.00
	-9.00	13.00	-88.00	35.00	17.00	2.00	10.00
	-4.00	12.00	-35.00	-3.00	15.00	38.00	4.00
	-8.00	18.00	137.00	-29.00	10.00	16.00	-7.00
	-30.00	15.00	121.00	-25.00	8.00	26.00	2.00
	-41.00	16.00	109.00	-56.00	13.00	29.00	-3.00
	-36.00	17.00	26.00	-38.00	22.00	51.00	-9.00
	-23.00	7.00	-52.00	-49.00	43.00	61.00	-5.00
	-14.00	5.00	-38.00	-22.00	34.00	41.00	17.00
	-9.00	20.00	-71.00	4.00	25.00	-5.00	25.00
	-12.00	26.00	-19.00	48.00	31.00	11.00	17.00
	-6.00	26.00	-85.00	108.00	33.00	-7.00	2.00
	-2.00	7.00	-191.00	102.00	21.00	-34.00	0.00
	4.00	0.00	-24.00	32.00	4.00	-31.00	-6.00
	3.00	-3.00	141.00	-28.00	3.00	8.00	-27.00
	-1.00	-3.00	103.00	-12.00	-13.00	42.00	-23.00
	-13.00	-7.00	165.00	-6.00	-18.00	32.00	-4.00
	-12.00	-5.00	315.00	-76.00	-7.00	55.00	7.00
	-10.00	-6.00	159.00	-55.00	-10.00	43.00	-7.00
	-3.00	-4.00	18.00	-36.00	-7.00	12.00	-22.00
	0.00	7.00	37.00	-41.00	-1.00	14.00	-7.00
	1.00	26.00	-18.00	-7.00	7.00	0.00	2.00
	4.00	8.00	-84.00	57.00	6.00	-15.00	-5.00
	18.00	2.00	-28.00	82.00	2.00	-28.00	-4.00
	26.00	3.00	62.00	71.00	22.00	3.00	7.00
	26.00	10.00	125.00	24.00	62.00	39.00	11.00
	17.00	29.00	96.00	49.00	36.00	-2.00	10.00
	20.00	24.00	175.00	27.00	12.00	-11.00	3.00
	16.00	17.00	163.00	-48.00	-1.00	-6.00	-4.00
	13.00	8.00	-2.00	-85.00	-19.00	8.00	0.00
	13.00	7.00	-326.00	-57.00	54.00	-5.00	11.00
	3.00	7.00	-324.00	7.00	99.00	4.00	10.00
	8.00	6.00	-209.00	38.00	91.00	21.00	14.00
	4.00	15.00	-184.00	12.00	70.00	16.00	10.00
	3.00	13.00	-127.00	40.00	45.00	36.00	7.00
	4.00	27.00	-112.00	76.00	19.00	-2.00	6.00
	6.00	11.00	-23.00	36.00	-14.00	-38.00	18.00
	7.00	-1.00	100.00	-32.00	-48.00	-44.00	10.00
	27.00	4.00	189.00	-90.00	-71.00	-49.00	-4.00
	40.00	23.00	248.00	-61.00	-69.00	-41.00	-9.00
	27.00	13.00	434.00	-79.00	-44.00	17.00	-2.00
	15.00	5.00	360.00	-66.00	-22.00	78.00	6.00
	15.00	2.00	217.00	-32.00	13.00	46.00	11.00
	18.00	-1.00	242.00	-10.00	0.00	13.00	5.00
	7.00	10.00	85.00	11.00	0.00	60.00	-2.00
	-6.00	26.00	-141.00	16.00	25.00	45.00	-15.00
	-18.00	31.00	-300.00	8.00	56.00	36.00	-20.00
	-23.00	25.00	-375.00	42.00	53.00	28.00	-27.00
	-27.00	19.00	-268.00	41.00	39.00	2.00	-11.00
	-29.00	18.00	-32.00	30.00	31.00	-6.00	7.00
	-23.00	21.00	199.00	29.00	23.00	-7.00	15.00
	-24.00	20.00	210.00	65.00	4.00	6.00	19.00
	-16.00	24.00	67.00	48.00	14.00	-26.00	19.00
	-14.00	22.00	-240.00	64.00	-2.00	-48.00	12.00
	-17.00	30.00	-322.00	71.00	5.00	-55.00	-6.00
	-17.00	3.00	-251.00	16.00	2.00	-45.00	-6.00
	-6.00	-13.00	-152.00	11.00	5.00	-8.00	9.00
	-7.00	-7.00	-21.00	26.00	5.00	-8.00	17.00
	-12.00	19.00	208.00	-27.00	16.00	6.00	3.00
	-11.00	36.00	193.00	-64.00	14.00	65.00	0.00
	-2.00	17.00	57.00	-71.00	7.00	66.00	-10.00
	9.00	2.00	29.00	-42.00	22.00	36.00	-11.00
	7.00	23.00	98.00	-50.00	23.00	47.00	-10.00
	1.00	27.00	65.00	-6.00	32.00	26.00	-7.00
	10.00	23.00	133.00	-9.00	22.00	-7.00	14.00
	12.00	22.00	-5.00	10.00	19.00	-3.00	5.00
	13.00	22.00	-225.00	58.00	32.00	-5.00	-7.00
	22.00	11.00	-277.00	64.00	32.00	-9.00	-6.00
	17.00	4.00	-259.00	83.00	20.00	10.00	-8.00
	33.00	8.00	-255.00	123.00	8.00	-9.00	6.00
	41.00	12.00	-58.00	123.00	-28.00	-41.00	1.00
	34.00	16.00	39.00	41.00	-11.00	-50.00	13.00
	21.00	21.00	148.00	-37.00	6.00	-29.00	11.00
	13.00	7.00	278.00	-40.00	5.00	51.00	4.00
	6.00	0.00	363.00	-102.00	-4.00	43.00	-22.00
	-2.00	15.00	287.00	-177.00	10.00	53.00	-5.00
	-6.00	20.00	281.00	-132.00	14.00	87.00	4.00
	-12.00	28.00	179.00	-26.00	15.00	16.00	-3.00
	-10.00	22.00	16.00	77.00	26.00	-3.00	-13.00
	-17.00	15.00	-106.00	92.00	24.00	-13.00	6.00
	-21.00	-4.00	-96.00	59.00	33.00	-12.00	24.00
	-36.00	2.00	-127.00	61.00	40.00	-1.00	16.00
	-50.00	15.00	-193.00	55.00	58.00	38.00	14.00
	-57.00	23.00	-92.00	45.00	48.00	12.00	-7.00
	-61.00	22.00	25.00	26.00	11.00	26.00	11.00
	-59.00	25.00	-79.00	30.00	-7.00	24.00	17.00
	-47.00	21.00	7.00	-2.00	-29.00	24.00	-21.00
	-27.00	5.00	38.00	-43.00	-51.00	20.00	-19.00
	-9.00	-4.00	65.00	-83.00	-55.00	12.00	-16.00
	3.00	9.00	53.00	-132.00	-28.00	10.00	-20.00
	11.00	22.00	24.00	-82.00	2.00	37.00	-4.00
	16.00	30.00	-11.00	22.00	4.00	8.00	-5.00
	22.00	18.00	-65.00	45.00	8.00	21.00	-1.00
	29.00	8.00	-119.00	64.00	4.00	9.00	7.00
	35.00	-11.00	-107.00	69.00	9.00	18.00	-1.00
	45.00	9.00	-117.00	88.00	13.00	12.00	-6.00
	34.00	23.00	-161.00	65.00	12.00	-29.00	5.00
	25.00	18.00	-161.00	51.00	8.00	-57.00	8.00
	8.00	13.00	-83.00	49.00	5.00	-41.00	7.00
	-2.00	-10.00	5.00	48.00	15.00	-15.00	2.00
	0.00	-24.00	94.00	37.00	34.00	5.00	6.00
	-4.00	-3.00	165.00	18.00	48.00	23.00	7.00
	-7.00	20.00	216.00	-94.00	30.00	13.00	2.00
	-15.00	26.00	131.00	-85.00	14.00	20.00	2.00
	-7.00	24.00	59.00	-21.00	27.00	5.00	8.00
	4.00	29.00	-8.00	6.00	20.00	-2.00	5.00
	13.00	16.00	-23.00	27.00	25.00	13.00	8.00
	15.00	8.00	-111.00	84.00	41.00	41.00	5.00
	18.00	4.00	-294.00	102.00	29.00	18.00	3.00
	32.00	7.00	-393.00	55.00	15.00	-45.00	1.00
	34.00	10.00	-269.00	-10.00	20.00	-55.00	2.00
	37.00	13.00	-266.00	-2.00	8.00	-31.00	6.00
	37.00	22.00	-7.00	-47.00	27.00	-13.00	12.00
	26.00	23.00	345.00	-119.00	-6.00	26.00	27.00
	17.00	24.00	618.00	-141.00	-3.00	36.00	30.00
	7.00	24.00	557.00	-60.00	-23.00	44.00	17.00
	7.00	18.00	340.00	26.00	6.00	67.00	-5.00
	-1.00	16.00	180.00	10.00	1.00	28.00	0.00
	1.00	19.00	24.00	0.00	23.00	-28.00	-8.00
	-3.00	16.00	-85.00	18.00	31.00	-16.00	-31.00
	-2.00	16.00	-140.00	41.00	21.00	-11.00	-20.00
	-3.00	11.00	-104.00	41.00	26.00	3.00	-11.00
	-22.00	10.00	9.00	3.00	28.00	-3.00	-18.00
	-23.00	8.00	161.00	19.00	-8.00	-4.00	-24.00
	-19.00	5.00	39.00	56.00	-27.00	4.00	-13.00
	-14.00	8.00	-133.00	68.00	-16.00	26.00	-7.00
	-12.00	8.00	-52.00	21.00	0.00	16.00	5.00
	-10.00	18.00	-17.00	8.00	-14.00	-2.00	7.00
	-22.00	28.00	-77.00	3.00	-3.00	19.00	4.00
	-24.00	28.00	-11.00	13.00	-8.00	27.00	-5.00
	-32.00	23.00	108.00	28.00	-18.00	37.00	-9.00
	-24.00	17.00	178.00	16.00	24.00	15.00	4.00
	-13.00	2.00	41.00	27.00	36.00	-13.00	13.00
	1.00	-2.00	-67.00	82.00	29.00	-25.00	3.00
	4.00	-11.00	-59.00	83.00	26.00	-32.00	0.00
	13.00	-7.00	-166.00	5.00	23.00	-15.00	-2.00
	11.00	10.00	-98.00	-116.00	21.00	17.00	-1.00
	4.00	13.00	49.00	-142.00	15.00	22.00	4.00
	9.00	12.00	57.00	-87.00	10.00	52.00	-12.00
	12.00	5.00	36.00	-106.00	-15.00	3.00	-1.00
	10.00	-1.00	-4.00	-68.00	-10.00	-5.00	8.00
	5.00	8.00	31.00	2.00	64.00	43.00	11.00
	10.00	8.00	-50.00	50.00	63.00	43.00	11.00
	10.00	-5.00	-198.00	67.00	20.00	6.00	3.00
	-6.00	14.00	-196.00	91.00	4.00	-6.00	5.00
	-14.00	26.00	-123.00	66.00	4.00	23.00	8.00
	-3.00	12.00	-90.00	72.00	28.00	35.00	12.00
	-4.00	16.00	-137.00	71.00	47.00	9.00	8.00
	1.00	22.00	-201.00	35.00	46.00	-9.00	4.00
	15.00	23.00	-196.00	-5.00	43.00	-5.00	9.00
	16.00	31.00	-70.00	30.00	28.00	-5.00	10.00
	15.00	19.00	145.00	-21.00	10.00	-18.00	-1.00
	9.00	5.00	133.00	4.00	-19.00	-2.00	17.00
	6.00	6.00	245.00	1.00	-17.00	46.00	18.00
	8.00	4.00	146.00	-33.00	-32.00	26.00	-4.00
	9.00	21.00	96.00	-45.00	-11.00	30.00	-26.00
	16.00	26.00	21.00	-65.00	12.00	27.00	-11.00
	6.00	23.00	75.00	-42.00	-7.00	45.00	-7.00
	-6.00	-16.00	152.00	23.00	-3.00	32.00	-10.00
	-5.00	3.00	232.00	15.00	21.00	5.00	-5.00
	-18.00	8.00	160.00	18.00	6.00	9.00	-2.00
	-32.00	18.00	44.00	47.00	-12.00	1.00	0.00
	-1.00	17.00	-23.00	42.00	-14.00	-4.00	1.00
	14.00	14.00	-76.00	30.00	-10.00	-21.00	-4.00
	-2.00	19.00	-282.00	33.00	48.00	-20.00	-9.00
	-8.00	22.00	-427.00	78.00	53.00	-27.00	-14.00
	-7.00	22.00	-310.00	51.00	42.00	-23.00	0.00
	2.00	8.00	-61.00	12.00	11.00	-25.00	9.00
	8.00	2.00	127.00	-15.00	-5.00	-32.00	25.00
	14.00	-6.00	279.00	-33.00	-1.00	2.00	22.00
	5.00	-5.00	321.00	-14.00	-51.00	10.00	17.00
	-12.00	13.00	188.00	-13.00	-43.00	22.00	10.00
	-32.00	31.00	10.00	7.00	-15.00	28.00	20.00
	-25.00	34.00	-15.00	0.00	-27.00	7.00	9.00
	-31.00	38.00	13.00	10.00	-36.00	16.00	-16.00
	-36.00	34.00	32.00	10.00	-20.00	34.00	-31.00
	-34.00	19.00	34.00	13.00	-12.00	20.00	-12.00
	-29.00	14.00	-114.00	22.00	7.00	37.00	-2.00
	-11.00	10.00	-120.00	18.00	43.00	37.00	-19.00
	5.00	0.00	27.00	-15.00	50.00	21.00	-28.00
	5.00	6.00	102.00	-8.00	29.00	6.00	-10.00
	-8.00	20.00	153.00	4.00	26.00	5.00	0.00
	-15.00	23.00	-16.00	-2.00	22.00	16.00	-10.00
	-19.00	27.00	-134.00	-15.00	16.00	-27.00	-24.00
	-13.00	30.00	-197.00	19.00	47.00	-44.00	-7.00
	4.00	12.00	-168.00	37.00	82.00	-19.00	7.00
	12.00	13.00	-151.00	30.00	41.00	-4.00	9.00
	2.00	9.00	-42.00	-15.00	14.00	-6.00	11.00
	-6.00	1.00	50.00	-22.00	42.00	49.00	18.00
	-5.00	13.00	121.00	15.00	65.00	42.00	27.00
	12.00	17.00	251.00	-19.00	32.00	22.00	26.00
	13.00	12.00	190.00	-40.00	19.00	6.00	12.00
	11.00	11.00	44.00	4.00	30.00	16.00	-2.00
	21.00	12.00	-19.00	69.00	40.00	28.00	-2.00
	16.00	14.00	-24.00	63.00	16.00	19.00	2.00
	7.00	18.00	-22.00	23.00	6.00	-4.00	-9.00
	2.00	25.00	-48.00	24.00	13.00	-20.00	-9.00
	7.00	30.00	-158.00	101.00	10.00	-12.00	-7.00
	-1.00	13.00	-101.00	84.00	-1.00	-6.00	-5.00
	-4.00	-4.00	-2.00	0.00	-20.00	-6.00	-2.00
	-3.00	-9.00	-71.00	3.00	-18.00	-11.00	-10.00
	-2.00	-2.00	-302.00	6.00	-9.00	-10.00	-7.00
	-5.00	8.00	-163.00	-77.00	-2.00	-10.00	5.00
	-11.00	6.00	-73.00	-99.00	-6.00	-27.00	14.00
	-12.00	15.00	77.00	-30.00	-1.00	-35.00	19.00
	-16.00	18.00	344.00	-17.00	-19.00	-17.00	14.00
	-27.00	17.00	562.00	-12.00	-31.00	21.00	10.00
	-26.00	16.00	368.00	-23.00	-24.00	58.00	6.00
	-19.00	21.00	101.00	17.00	-19.00	47.00	7.00
	-18.00	25.00	-8.00	-11.00	-9.00	92.00	-2.00
	-6.00	25.00	-16.00	-4.00	12.00	65.00	-7.00
	4.00	27.00	-80.00	54.00	22.00	12.00	-1.00
	13.00	36.00	-176.00	68.00	28.00	2.00	4.00
	21.00	20.00	-377.00	47.00	43.00	-3.00	-4.00
	25.00	3.00	-350.00	-4.00	34.00	-5.00	-1.00
	24.00	-1.00	-232.00	-46.00	18.00	-25.00	-2.00
	29.00	2.00	-23.00	-29.00	9.00	-48.00	4.00
	23.00	-2.00	192.00	34.00	-10.00	-12.00	1.00
	14.00	3.00	439.00	24.00	-9.00	21.00	5.00
	2.00	7.00	450.00	-24.00	10.00	60.00	2.00
	2.00	25.00	300.00	-7.00	35.00	38.00	6.00
	10.00	35.00	106.00	8.00	34.00	46.00	3.00
	14.00	25.00	-240.00	28.00	23.00	35.00	-3.00
	17.00	17.00	-573.00	75.00	29.00	21.00	-8.00
	13.00	11.00	-629.00	41.00	46.00	-26.00	-5.00
	11.00	9.00	-516.00	3.00	56.00	-29.00	-8.00
	12.00	-11.00	-319.00	-8.00	36.00	-33.00	-1.00
	7.00	-2.00	143.00	-47.00	23.00	-2.00	3.00
	9.00	6.00	538.00	-110.00	-15.00	18.00	-3.00
	0.00	16.00	539.00	-72.00	-43.00	60.00	-8.00
	0.00	-6.00	441.00	-57.00	-30.00	58.00	-9.00
	3.00	-14.00	345.00	-46.00	-15.00	16.00	4.00
	8.00	-5.00	286.00	7.00	-1.00	-13.00	2.00
	7.00	1.00	141.00	25.00	1.00	-17.00	11.00
	4.00	5.00	98.00	1.00	16.00	10.00	15.00
	-5.00	8.00	13.00	26.00	17.00	35.00	13.00
	-9.00	19.00	6.00	68.00	21.00	23.00	-2.00
	4.00	22.00	-96.00	108.00	26.00	7.00	-16.00
	-3.00	17.00	-153.00	109.00	10.00	18.00	2.00
	-17.00	18.00	-204.00	76.00	8.00	-16.00	13.00
	-20.00	11.00	-182.00	32.00	-1.00	-42.00	3.00
	-22.00	16.00	-196.00	34.00	1.00	6.00	-7.00
	-25.00	30.00	-335.00	38.00	14.00	-5.00	-11.00
	-14.00	34.00	-302.00	-25.00	33.00	-17.00	-23.00
	-5.00	41.00	-205.00	-64.00	30.00	-37.00	-29.00
	-10.00	25.00	-113.00	-83.00	28.00	-5.00	-9.00
	-10.00	11.00	-35.00	-50.00	24.00	36.00	17.00
	-11.00	19.00	152.00	8.00	6.00	20.00	20.00
	-15.00	27.00	234.00	69.00	-14.00	37.00	24.00
	-6.00	26.00	263.00	54.00	-12.00	33.00	28.00
	-13.00	32.00	209.00	-3.00	2.00	22.00	0.00
	-30.00	27.00	140.00	-33.00	2.00	31.00	-18.00
	-26.00	10.00	34.00	-52.00	-4.00	20.00	-11.00
	-4.00	-4.00	-13.00	-26.00	-10.00	4.00	-16.00
	11.00	-25.00	-47.00	-21.00	-5.00	-6.00	-1.00
	19.00	-29.00	-147.00	-4.00	31.00	-16.00	-7.00
	27.00	-6.00	-274.00	21.00	44.00	-39.00	-13.00
	32.00	10.00	-291.00	34.00	54.00	-45.00	-25.00
	24.00	15.00	-141.00	34.00	52.00	-33.00	-6.00
	21.00	11.00	8.00	53.00	27.00	-25.00	7.00
	16.00	9.00	200.00	64.00	-1.00	-1.00	4.00
	9.00	-4.00	205.00	95.00	-42.00	40.00	3.00
	-4.00	8.00	144.00	60.00	-37.00	36.00	1.00
	2.00	20.00	42.00	7.00	-3.00	-7.00	-1.00
	15.00	8.00	-99.00	-3.00	26.00	-8.00	-3.00
	27.00	19.00	-58.00	-32.00	59.00	19.00	4.00
	19.00	30.00	26.00	-56.00	54.00	40.00	9.00
	16.00	30.00	46.00	-43.00	60.00	41.00	10.00
	10.00	16.00	77.00	3.00	62.00	36.00	3.00
	5.00	8.00	98.00	50.00	14.00	22.00	0.00
	-5.00	10.00	-28.00	10.00	36.00	-10.00	-3.00
	-10.00	17.00	-108.00	71.00	99.00	6.00	16.00
	-14.00	18.00	-76.00	114.00	86.00	0.00	12.00
	-14.00	9.00	-159.00	32.00	49.00	-20.00	11.00
	-28.00	20.00	-154.00	25.00	2.00	-16.00	8.00
	-33.00	25.00	-104.00	12.00	-51.00	19.00	-1.00
	-24.00	28.00	51.00	-31.00	-69.00	19.00	16.00
	-13.00	24.00	283.00	-68.00	-117.00	-13.00	19.00
	-8.00	4.00	556.00	-125.00	-131.00	-25.00	10.00
	-4.00	4.00	456.00	-112.00	-127.00	-16.00	-9.00
	7.00	6.00	213.00	-50.00	-54.00	6.00	-6.00
	8.00	0.00	9.00	16.00	4.00	53.00	-9.00
	12.00	4.00	-66.00	22.00	64.00	83.00	-19.00
	9.00	14.00	-144.00	26.00	89.00	64.00	-8.00
	14.00	13.00	-217.00	4.00	77.00	18.00	6.00
	-2.00	17.00	-311.00	-21.00	40.00	-3.00	6.00
	-24.00	31.00	-200.00	-13.00	30.00	-3.00	6.00
	-32.00	33.00	2.00	11.00	36.00	4.00	10.00
	-26.00	42.00	132.00	28.00	13.00	8.00	2.00
	-32.00	36.00	244.00	32.00	-7.00	16.00	3.00
	-35.00	18.00	-6.00	69.00	17.00	23.00	28.00
	-18.00	11.00	-162.00	63.00	36.00	14.00	23.00
	2.00	8.00	-158.00	49.00	25.00	4.00	-11.00
	5.00	14.00	-243.00	20.00	19.00	3.00	-42.00
	4.00	9.00	-144.00	24.00	28.00	12.00	-51.00
	10.00	1.00	45.00	21.00	38.00	7.00	-33.00
	0.00	1.00	85.00	-4.00	42.00	14.00	-12.00
	-9.00	12.00	80.00	-12.00	46.00	-1.00	0.00
	-18.00	6.00	74.00	15.00	38.00	10.00	0.00
	-24.00	-5.00	-1.00	18.00	16.00	28.00	-2.00
	-31.00	-6.00	74.00	-11.00	-4.00	21.00	8.00
	-22.00	8.00	61.00	4.00	-20.00	8.00	8.00
	-14.00	13.00	-125.00	39.00	-10.00	-1.00	9.00
	-5.00	16.00	-233.00	21.00	-7.00	-17.00	6.00
	6.00	19.00	-235.00	2.00	-16.00	-4.00	1.00
	11.00	14.00	-143.00	17.00	12.00	-26.00	7.00
	21.00	11.00	21.00	6.00	8.00	-42.00	13.00
	20.00	5.00	69.00	5.00	11.00	-28.00	21.00
	20.00	2.00	145.00	-8.00	6.00	-11.00	16.00
	28.00	5.00	46.00	45.00	0.00	13.00	-1.00
	28.00	17.00	-124.00	54.00	29.00	6.00	-4.00
	14.00	20.00	-11.00	89.00	36.00	9.00	-14.00
	21.00	18.00	239.00	110.00	44.00	17.00	-13.00
	23.00	12.00	312.00	64.00	37.00	2.00	2.00
	17.00	25.00	345.00	52.00	8.00	12.00	4.00
	16.00	29.00	71.00	-14.00	-20.00	23.00	-4.00
	4.00	35.00	-99.00	-35.00	-6.00	2.00	0.00
	-2.00	44.00	-48.00	-33.00	-21.00	25.00	7.00
	-1.00	29.00	114.00	-84.00	-41.00	23.00	6.00
	-13.00	18.00	203.00	-107.00	-25.00	2.00	0.00
	-14.00	20.00	205.00	-104.00	-27.00	21.00	-22.00
	-13.00	-3.00	52.00	-79.00	-14.00	15.00	-19.00
	-20.00	10.00	-48.00	-55.00	25.00	21.00	-7.00
	-3.00	0.00	-38.00	-14.00	49.00	10.00	7.00
	7.00	-2.00	-114.00	31.00	37.00	4.00	8.00
	7.00	7.00	-122.00	-42.00	26.00	22.00	14.00
	12.00	12.00	-152.00	-56.00	20.00	15.00	26.00
	18.00	7.00	-111.00	-51.00	12.00	-15.00	28.00
	18.00	4.00	-12.00	-50.00	10.00	-13.00	1.00
	8.00	6.00	81.00	-26.00	25.00	26.00	-11.00
	-7.00	11.00	84.00	22.00	32.00	45.00	-30.00
	-13.00	16.00	-32.00	56.00	45.00	29.00	-36.00
	-3.00	25.00	-165.00	60.00	42.00	26.00	-7.00
	-6.00	32.00	-222.00	27.00	37.00	5.00	5.00
	-2.00	29.00	-164.00	51.00	20.00	-23.00	10.00
	1.00	28.00	-73.00	40.00	7.00	-21.00	12.00
	10.00	12.00	-142.00	42.00	-6.00	-18.00	7.00
	7.00	-1.00	-164.00	72.00	-9.00	-21.00	-4.00
	6.00	20.00	-276.00	59.00	2.00	-30.00	-3.00
	10.00	13.00	-140.00	27.00	27.00	12.00	-12.00
	6.00	-8.00	175.00	-60.00	14.00	2.00	-12.00
	10.00	-5.00	266.00	-75.00	13.00	6.00	1.00
	6.00	-8.00	307.00	-33.00	45.00	34.00	5.00
	-9.00	-7.00	302.00	29.00	24.00	72.00	-4.00
	-1.00	1.00	189.00	96.00	0.00	74.00	-1.00
	0.00	9.00	195.00	16.00	19.00	42.00	-1.00
	7.00	17.00	184.00	-35.00	10.00	-3.00	-6.00
	7.00	22.00	189.00	-79.00	2.00	-22.00	-5.00
	2.00	16.00	77.00	-64.00	12.00	-12.00	6.00
	8.00	-1.00	-124.00	14.00	43.00	4.00	6.00
	12.00	-12.00	-309.00	49.00	43.00	-15.00	6.00
	12.00	0.00	-328.00	75.00	40.00	10.00	9.00
	8.00	21.00	-210.00	44.00	21.00	-21.00	12.00
	6.00	23.00	-38.00	9.00	7.00	-21.00	18.00
	-15.00	24.00	69.00	29.00	-5.00	-7.00	20.00
	-19.00	20.00	136.00	60.00	-42.00	22.00	10.00
	-27.00	26.00	11.00	48.00	-40.00	14.00	7.00
	-29.00	20.00	-162.00	74.00	-33.00	0.00	6.00
	-20.00	-3.00	-87.00	40.00	-14.00	14.00	-5.00
	-10.00	-9.00	38.00	-22.00	1.00	-1.00	-16.00
	4.00	15.00	99.00	-21.00	-1.00	1.00	-23.00
	-2.00	16.00	258.00	-59.00	19.00	-2.00	-25.00
	-8.00	1.00	209.00	-4.00	27.00	46.00	-29.00
	-9.00	4.00	13.00	25.00	58.00	50.00	-13.00
	-5.00	19.00	13.00	5.00	49.00	18.00	11.00
	3.00	13.00	-42.00	37.00	26.00	12.00	14.00
	12.00	16.00	29.00	35.00	5.00	2.00	3.00
	17.00	20.00	-37.00	49.00	0.00	-3.00	-14.00
	22.00	3.00	-96.00	63.00	-19.00	-1.00	-5.00
	20.00	-4.00	-113.00	65.00	11.00	-19.00	-2.00
	28.00	6.00	-43.00	33.00	46.00	-25.00	7.00
	28.00	10.00	-173.00	26.00	60.00	-18.00	12.00
	22.00	21.00	-153.00	19.00	67.00	-20.00	14.00
	3.00	28.00	15.00	17.00	66.00	-4.00	5.00
	-17.00	28.00	-61.00	35.00	67.00	22.00	-9.00
	-13.00	17.00	-117.00	69.00	21.00	0.00	-8.00
	-10.00	-3.00	-90.00	57.00	-46.00	-7.00	0.00
	1.00	13.00	-86.00	-5.00	-85.00	22.00	-12.00
	-7.00	19.00	84.00	-72.00	-115.00	40.00	-24.00
	-18.00	27.00	296.00	-122.00	-134.00	68.00	-8.00
	-19.00	31.00	402.00	-113.00	-98.00	55.00	-4.00
	1.00	25.00	237.00	-99.00	-60.00	33.00	2.00
	4.00	30.00	-9.00	-32.00	-19.00	26.00	3.00
	0.00	24.00	-126.00	-33.00	31.00	11.00	0.00
	-15.00	17.00	-96.00	6.00	64.00	-4.00	-1.00
	-26.00	2.00	-32.00	33.00	90.00	1.00	11.00
	-33.00	-4.00	41.00	-26.00	82.00	10.00	16.00
	-39.00	6.00	155.00	-118.00	52.00	3.00	0.00
	-42.00	14.00	164.00	-58.00	34.00	19.00	-5.00
	-43.00	30.00	48.00	-19.00	48.00	32.00	-12.00
	-43.00	31.00	-98.00	-9.00	43.00	26.00	-11.00
	-34.00	21.00	-122.00	43.00	5.00	8.00	-4.00
	-26.00	18.00	-222.00	77.00	-12.00	-9.00	6.00
	-22.00	18.00	-299.00	77.00	6.00	-16.00	17.00
	-1.00	7.00	-271.00	90.00	18.00	5.00	25.00
	1.00	15.00	-36.00	44.00	-1.00	-15.00	22.00
	8.00	22.00	168.00	23.00	-33.00	-23.00	-3.00
	11.00	20.00	135.00	49.00	-32.00	2.00	-41.00
	20.00	12.00	123.00	2.00	-16.00	-10.00	-29.00
	21.00	2.00	69.00	-16.00	-6.00	43.00	-28.00
	18.00	-5.00	55.00	7.00	15.00	57.00	-16.00
	15.00	10.00	98.00	8.00	13.00	-11.00	6.00
	33.00	14.00	35.00	62.00	21.00	1.00	6.00
	35.00	18.00	32.00	22.00	39.00	-11.00	-3.00
	32.00	14.00	-118.00	-4.00	48.00	-32.00	4.00
	20.00	17.00	-286.00	17.00	52.00	-48.00	8.00
	3.00	12.00	-91.00	-3.00	48.00	-33.00	9.00
	-3.00	12.00	114.00	-35.00	43.00	-8.00	4.00
	-15.00	4.00	221.00	-30.00	35.00	2.00	4.00
	-10.00	10.00	233.00	45.00	27.00	28.00	5.00
	-19.00	38.00	246.00	4.00	-1.00	31.00	11.00
	-26.00	38.00	37.00	-8.00	-9.00	16.00	12.00
	-15.00	16.00	-91.00	-12.00	15.00	4.00	13.00
	-12.00	1.00	-59.00	-15.00	19.00	22.00	17.00
	0.00	-10.00	-8.00	-17.00	1.00	22.00	18.00
	-2.00	11.00	-41.00	0.00	7.00	15.00	14.00
	-13.00	29.00	57.00	-7.00	4.00	-17.00	-10.00
	-15.00	31.00	-4.00	24.00	-11.00	-7.00	-23.00
	-13.00	2.00	-181.00	71.00	1.00	-1.00	-18.00
	-7.00	-9.00	-218.00	78.00	14.00	-7.00	-22.00
	2.00	10.00	-233.00	77.00	27.00	11.00	-27.00
	12.00	14.00	-252.00	47.00	37.00	52.00	-15.00
	16.00	2.00	-112.00	19.00	29.00	62.00	-6.00
	19.00	11.00	61.00	54.00	13.00	32.00	-4.00
	20.00	21.00	182.00	42.00	17.00	37.00	4.00
	25.00	23.00	171.00	31.00	21.00	28.00	10.00
	29.00	14.00	189.00	-23.00	22.00	13.00	8.00
	33.00	8.00	132.00	-82.00	22.00	-8.00	6.00
	37.00	11.00	143.00	-117.00	16.00	-3.00	2.00
	41.00	15.00	-83.00	-36.00	35.00	0.00	-8.00
	44.00	17.00	-398.00	50.00	34.00	-32.00	-5.00
	41.00	30.00	-384.00	82.00	14.00	-44.00	6.00
	37.00	31.00	-134.00	52.00	-1.00	-56.00	5.00
	24.00	6.00	134.00	-4.00	-15.00	-31.00	-2.00
	6.00	-9.00	289.00	-34.00	-49.00	4.00	-14.00
	-2.00	-6.00	36.00	-28.00	-70.00	58.00	-7.00
	-13.00	6.00	-127.00	3.00	-25.00	73.00	6.00
	-19.00	5.00	-77.00	-42.00	-3.00	53.00	4.00
	-27.00	21.00	128.00	-37.00	2.00	52.00	4.00
	-24.00	26.00	276.00	34.00	8.00	38.00	1.00
	-11.00	34.00	469.00	-65.00	2.00	37.00	-7.00
	4.00	34.00	425.00	-170.00	22.00	25.00	-15.00
	12.00	11.00	279.00	-116.00	30.00	3.00	-23.00
	21.00	0.00	80.00	-29.00	45.00	1.00	-19.00
	43.00	13.00	-52.00	41.00	34.00	-8.00	9.00
	59.00	9.00	-83.00	80.00	6.00	-26.00	11.00
	70.00	-7.00	-91.00	30.00	21.00	-38.00	10.00
	70.00	-36.00	-22.00	6.00	25.00	-4.00	14.00
	56.00	-28.00	133.00	-10.00	48.00	-23.00	-1.00
	46.00	-6.00	93.00	-20.00	52.00	-23.00	0.00
	32.00	13.00	4.00	6.00	58.00	-8.00	-13.00
	14.00	26.00	-73.00	36.00	62.00	26.00	-5.00
	-3.00	21.00	-194.00	105.00	52.00	52.00	-1.00
	-6.00	16.00	-275.00	120.00	11.00	14.00	1.00
	-16.00	28.00	-238.00	88.00	-22.00	-1.00	-4.00
	-18.00	34.00	-135.00	75.00	-52.00	-9.00	6.00
	-20.00	25.00	-227.00	93.00	-65.00	-20.00	14.00
	-17.00	25.00	-294.00	86.00	-66.00	-2.00	-10.00
	-43.00	31.00	-238.00	21.00	-40.00	8.00	-12.00
	-62.00	5.00	-8.00	-25.00	-18.00	15.00	-12.00
	-66.00	1.00	175.00	-32.00	0.00	5.00	1.00
	-75.00	0.00	507.00	-92.00	-12.00	-8.00	9.00
	-80.00	2.00	362.00	-84.00	-14.00	14.00	7.00
	-75.00	12.00	108.00	-25.00	32.00	3.00	4.00
	-79.00	28.00	4.00	-18.00	43.00	0.00	5.00
	-82.00	31.00	-28.00	12.00	28.00	3.00	12.00
	-105.00	28.00	-173.00	10.00	13.00	-11.00	15.00
	-113.00	29.00	-140.00	32.00	16.00	10.00	10.00
	-120.00	18.00	-69.00	3.00	6.00	-3.00	2.00
	-131.00	21.00	-111.00	-19.00	16.00	30.00	-30.00
	-146.00	16.00	-128.00	7.00	25.00	29.00	-21.00
	-138.00	14.00	-104.00	40.00	-10.00	45.00	-11.00
	-127.00	25.00	-161.00	65.00	-5.00	44.00	-12.00
	-84.00	26.00	-20.00	5.00	33.00	28.00	-9.00
	-59.00	23.00	116.00	2.00	26.00	33.00	4.00
	-34.00	19.00	240.00	-46.00	31.00	-8.00	12.00
	-26.00	12.00	245.00	-50.00	35.00	-18.00	7.00
	-16.00	-3.00	239.00	-37.00	24.00	-3.00	13.00
	7.00	1.00	86.00	-49.00	41.00	17.00	22.00
	28.00	1.00	-134.00	-5.00	49.00	7.00	25.00
	54.00	10.00	-251.00	44.00	55.00	-18.00	15.00
	61.00	12.00	-273.00	43.00	42.00	8.00	-11.00
	55.00	10.00	-226.00	45.00	26.00	11.00	-32.00
	56.00	10.00	-132.00	112.00	-10.00	3.00	-18.00
	65.00	6.00	-30.00	143.00	-35.00	-7.00	-5.00
	96.00	3.00	85.00	82.00	-56.00	1.00	0.00
	112.00	7.00	212.00	46.00	-25.00	36.00	8.00
	116.00	11.00	255.00	4.00	18.00	52.00	13.00
	128.00	4.00	209.00	-50.00	26.00	56.00	8.00
	118.00	3.00	102.00	-70.00	16.00	28.00	1.00
	112.00	8.00	26.00	-43.00	11.00	16.00	-8.00
	108.00	9.00	-123.00	-28.00	26.00	-2.00	-9.00
	90.00	15.00	-169.00	6.00	25.00	-7.00	-16.00
	80.00	22.00	-185.00	19.00	19.00	-28.00	-21.00
	78.00	28.00	-56.00	-9.00	5.00	-29.00	-12.00
	73.00	23.00	1.00	-26.00	23.00	-1.00	-21.00
	71.00	8.00	6.00	2.00	48.00	48.00	-3.00
	77.00	11.00	47.00	13.00	28.00	20.00	10.00
	66.00	14.00	73.00	9.00	11.00	7.00	23.00
	57.00	0.00	143.00	13.00	2.00	1.00	16.00
	47.00	-4.00	184.00	16.00	7.00	23.00	14.00
	41.00	-5.00	42.00	24.00	2.00	34.00	-1.00
	33.00	-1.00	-60.00	56.00	-3.00	7.00	-1.00
	20.00	-1.00	-90.00	52.00	-1.00	6.00	6.00
	12.00	8.00	-14.00	52.00	-10.00	26.00	10.00
	1.00	10.00	-6.00	77.00	2.00	14.00	3.00
	-9.00	8.00	-9.00	82.00	15.00	-10.00	-1.00
	-14.00	20.00	-91.00	53.00	15.00	-36.00	7.00
	-4.00	21.00	-171.00	-44.00	15.00	-43.00	11.00
	3.00	20.00	-176.00	-104.00	26.00	-34.00	11.00
	-9.00	10.00	14.00	-131.00	28.00	-33.00	11.00
	-19.00	-10.00	-51.00	-77.00	-6.00	-25.00	4.00
	-28.00	-5.00	-100.00	-71.00	0.00	13.00	-2.00
	-45.00	9.00	90.00	-48.00	16.00	-5.00	-15.00
	-53.00	10.00	217.00	-6.00	28.00	-20.00	-24.00
	-44.00	6.00	315.00	84.00	-28.00	34.00	-11.00
	-46.00	11.00	432.00	18.00	-23.00	53.00	-3.00
	-58.00	23.00	284.00	-13.00	-27.00	50.00	4.00
	-55.00	33.00	183.00	-9.00	1.00	33.00	9.00
	-41.00	18.00	86.00	-19.00	14.00	15.00	1.00
	-28.00	3.00	40.00	-26.00	0.00	2.00	11.00
	-16.00	14.00	47.00	-100.00	-6.00	-13.00	26.00
	-12.00	27.00	-27.00	-78.00	3.00	-22.00	20.00
	-9.00	27.00	-88.00	-14.00	8.00	-37.00	6.00
	-25.00	34.00	-174.00	61.00	23.00	-6.00	13.00
	-29.00	41.00	-411.00	68.00	72.00	37.00	10.00
	-27.00	33.00	-416.00	39.00	80.00	4.00	-12.00
	-30.00	23.00	-329.00	48.00	68.00	-1.00	-37.00
	-28.00	25.00	-199.00	48.00	33.00	5.00	-37.00
	-38.00	30.00	-3.00	21.00	31.00	16.00	-20.00
	-46.00	18.00	187.00	53.00	30.00	49.00	-11.00
	-47.00	18.00	248.00	95.00	33.00	52.00	-7.00
	-30.00	13.00	177.00	80.00	36.00	29.00	-3.00
	-22.00	5.00	97.00	101.00	20.00	18.00	-6.00
	-16.00	-1.00	76.00	98.00	6.00	-12.00	-4.00
	-9.00	10.00	-38.00	92.00	2.00	-19.00	1.00
	-7.00	10.00	-124.00	84.00	5.00	-31.00	0.00
	-4.00	3.00	-125.00	71.00	3.00	-23.00	6.00
	3.00	13.00	-134.00	-16.00	0.00	29.00	8.00
	3.00	11.00	-147.00	-79.00	4.00	44.00	6.00
	15.00	-5.00	-64.00	-93.00	-6.00	13.00	7.00
	15.00	9.00	2.00	-125.00	-3.00	-17.00	5.00
	18.00	20.00	-8.00	-143.00	1.00	-20.00	-1.00
	21.00	30.00	22.00	-180.00	7.00	-12.00	-7.00
	17.00	16.00	-107.00	-119.00	37.00	19.00	7.00
	14.00	20.00	-287.00	-39.00	72.00	57.00	12.00
	7.00	5.00	-37.00	-21.00	44.00	32.00	2.00
	5.00	12.00	382.00	-28.00	1.00	28.00	2.00
	3.00	18.00	556.00	24.00	-13.00	19.00	4.00
	12.00	10.00	669.00	31.00	-43.00	19.00	7.00
	13.00	18.00	502.00	31.00	-47.00	33.00	9.00
	0.00	9.00	15.00	75.00	-16.00	27.00	8.00
	-5.00	-8.00	-180.00	78.00	-19.00	12.00	6.00
	-9.00	1.00	-212.00	39.00	-8.00	-5.00	10.00
	-6.00	7.00	-284.00	30.00	-12.00	-9.00	7.00
	1.00	4.00	-142.00	20.00	-13.00	-21.00	-8.00
	-7.00	13.00	70.00	-19.00	14.00	10.00	-18.00
	-21.00	26.00	106.00	5.00	24.00	5.00	-14.00
	-27.00	26.00	51.00	52.00	27.00	13.00	3.00
	-31.00	34.00	17.00	51.00	46.00	18.00	11.00
	-36.00	24.00	-90.00	68.00	34.00	12.00	0.00
	-15.00	16.00	-213.00	48.00	23.00	-11.00	4.00
	-1.00	15.00	-260.00	39.00	14.00	-11.00	-8.00
	-6.00	14.00	-252.00	66.00	11.00	-4.00	-21.00
	-1.00	26.00	-177.00	58.00	4.00	4.00	-12.00
	4.00	10.00	-38.00	15.00	15.00	-15.00	-8.00
	0.00	14.00	80.00	34.00	25.00	-8.00	-8.00
	-2.00	1.00	100.00	71.00	31.00	17.00	2.00
	6.00	-13.00	92.00	2.00	33.00	10.00	7.00
	14.00	-38.00	10.00	-33.00	17.00	0.00	3.00
	26.00	-14.00	18.00	-69.00	-11.00	-27.00	5.00
	53.00	-6.00	-3.00	-72.00	-43.00	-29.00	8.00
	48.00	19.00	-123.00	-27.00	-41.00	0.00	9.00
	32.00	29.00	-162.00	-4.00	-32.00	25.00	-2.00
	15.00	34.00	-26.00	10.00	15.00	67.00	-1.00
	5.00	37.00	131.00	-3.00	50.00	72.00	2.00
	11.00	14.00	320.00	39.00	38.00	74.00	-16.00
	19.00	4.00	421.00	45.00	11.00	56.00	-13.00
	14.00	2.00	117.00	47.00	32.00	-10.00	8.00
	-4.00	2.00	-336.00	102.00	54.00	-26.00	15.00
	-24.00	16.00	-574.00	128.00	56.00	-38.00	15.00
	-53.00	30.00	-386.00	52.00	52.00	-22.00	15.00
	-51.00	15.00	-89.00	-18.00	37.00	-5.00	18.00
	-50.00	6.00	227.00	-41.00	13.00	-7.00	14.00
	-47.00	-6.00	440.00	-95.00	-18.00	17.00	14.00
	-46.00	6.00	420.00	-163.00	12.00	28.00	-27.00
	-38.00	11.00	197.00	-154.00	29.00	21.00	-51.00
	-34.00	23.00	83.00	-72.00	47.00	29.00	-30.00
	-21.00	26.00	11.00	-15.00	52.00	39.00	-16.00
	-12.00	19.00	-77.00	-29.00	38.00	29.00	1.00
	-3.00	20.00	-189.00	-4.00	20.00	11.00	0.00
	6.00	26.00	-210.00	114.00	-18.00	-19.00	5.00
	22.00	9.00	-311.00	130.00	-35.00	-30.00	3.00
	34.00	-3.00	-368.00	75.00	-63.00	-37.00	7.00
	48.00	-15.00	-112.00	34.00	-80.00	-42.00	14.00
	44.00	-2.00	91.00	4.00	-63.00	-33.00	10.00
	43.00	1.00	279.00	-56.00	-29.00	-8.00	4.00
	28.00	4.00	546.00	-98.00	-50.00	16.00	-5.00
	26.00	20.00	451.00	-21.00	-45.00	35.00	-4.00
	21.00	25.00	135.00	22.00	-6.00	-9.00	5.00
	22.00	35.00	-43.00	7.00	23.00	-33.00	13.00
	1.00	35.00	-118.00	-11.00	39.00	4.00	8.00
	-2.00	27.00	-87.00	18.00	26.00	48.00	5.00
	-2.00	21.00	-35.00	18.00	34.00	52.00	10.00
	1.00	19.00	55.00	4.00	30.00	22.00	8.00
	4.00	20.00	-28.00	32.00	33.00	22.00	10.00
	2.00	16.00	-231.00	28.00	43.00	8.00	10.00
	6.00	16.00	-211.00	31.00	47.00	-19.00	14.00
	8.00	9.00	-146.00	44.00	75.00	-5.00	16.00
	10.00	8.00	-49.00	43.00	76.00	-2.00	0.00
	16.00	5.00	182.00	49.00	46.00	0.00	-10.00
	3.00	24.00	209.00	42.00	0.00	67.00	-28.00
	-6.00	28.00	-15.00	35.00	-8.00	32.00	-8.00
	-4.00	24.00	-44.00	-6.00	1.00	-12.00	-4.00
	4.00	15.00	5.00	44.00	5.00	32.00	4.00
	1.00	2.00	6.00	88.00	12.00	19.00	14.00
	-8.00	14.00	28.00	6.00	13.00	7.00	27.00
	-10.00	35.00	23.00	-39.00	18.00	6.00	20.00
	-15.00	28.00	-79.00	0.00	-4.00	-3.00	7.00
	-21.00	7.00	-54.00	-80.00	-4.00	-20.00	-6.00
	-24.00	1.00	-121.00	-121.00	-8.00	13.00	-27.00
	-30.00	-14.00	-119.00	-89.00	2.00	36.00	-41.00
	-33.00	11.00	-90.00	-46.00	6.00	5.00	-41.00
	-29.00	20.00	-117.00	36.00	24.00	14.00	-19.00
	-22.00	28.00	-98.00	73.00	28.00	19.00	-9.00
	-19.00	34.00	-109.00	75.00	36.00	16.00	-1.00
	-13.00	32.00	-96.00	77.00	21.00	24.00	3.00
	-9.00	20.00	-279.00	54.00	10.00	26.00	0.00
	-6.00	-3.00	-239.00	9.00	-9.00	9.00	5.00
	7.00	-10.00	108.00	-30.00	-33.00	-20.00	6.00
	13.00	-2.00	397.00	-28.00	-29.00	1.00	3.00
	19.00	13.00	344.00	5.00	1.00	12.00	3.00
	9.00	28.00	431.00	16.00	5.00	4.00	1.00
	15.00	20.00	343.00	34.00	21.00	28.00	6.00
	23.00	20.00	209.00	-14.00	36.00	26.00	7.00
	29.00	5.00	127.00	-15.00	39.00	6.00	2.00
	24.00	-1.00	-82.00	8.00	49.00	-14.00	11.00
	16.00	21.00	-127.00	-32.00	57.00	-37.00	8.00
	22.00	10.00	-157.00	-3.00	39.00	-30.00	0.00
	10.00	5.00	-160.00	38.00	-7.00	-9.00	0.00
	-2.00	9.00	-13.00	14.00	-26.00	-8.00	-3.00
	-5.00	4.00	158.00	-51.00	-26.00	-3.00	-2.00
	-13.00	6.00	119.00	-7.00	-30.00	4.00	6.00
	-18.00	6.00	-49.00	98.00	9.00	44.00	10.00
	-19.00	11.00	-32.00	82.00	53.00	61.00	16.00
	-21.00	14.00	84.00	-7.00	63.00	42.00	11.00
	-16.00	18.00	106.00	-5.00	28.00	28.00	7.00
	-8.00	16.00	127.00	-19.00	-1.00	5.00	7.00
	-7.00	11.00	-6.00	-19.00	2.00	-11.00	-3.00
	-12.00	11.00	-66.00	-33.00	-2.00	-19.00	-13.00
	-16.00	15.00	-114.00	-37.00	0.00	-12.00	-3.00
	-20.00	24.00	-187.00	-10.00	14.00	-20.00	-7.00
	-7.00	20.00	-121.00	21.00	0.00	-4.00	-16.00
	6.00	13.00	-53.00	20.00	-22.00	1.00	-14.00
	7.00	14.00	-69.00	-34.00	-26.00	0.00	-3.00
	7.00	26.00	-73.00	-52.00	35.00	20.00	-4.00
	5.00	30.00	-36.00	-56.00	43.00	30.00	1.00
	9.00	9.00	-61.00	9.00	34.00	38.00	6.00
	2.00	15.00	-27.00	21.00	27.00	35.00	7.00
	4.00	11.00	46.00	56.00	-9.00	9.00	11.00
	7.00	14.00	187.00	79.00	-31.00	45.00	15.00
	2.00	7.00	217.00	62.00	-21.00	46.00	19.00
	8.00	9.00	74.00	36.00	-9.00	6.00	13.00
	9.00	4.00	-121.00	35.00	-1.00	-10.00	0.00
	5.00	-3.00	-231.00	-5.00	8.00	-9.00	2.00
	8.00	3.00	-198.00	-17.00	20.00	-31.00	-2.00
	12.00	2.00	-144.00	24.00	40.00	-11.00	-6.00
	16.00	10.00	-48.00	32.00	45.00	-6.00	-20.00
	18.00	18.00	117.00	17.00	10.00	-14.00	-10.00
	13.00	22.00	162.00	35.00	-12.00	-6.00	-14.00
	11.00	11.00	122.00	15.00	18.00	-2.00	-24.00
	2.00	2.00	137.00	15.00	56.00	1.00	-4.00
	-1.00	-4.00	178.00	-34.00	48.00	-9.00	6.00
	4.00	3.00	66.00	-59.00	23.00	-15.00	1.00
	11.00	11.00	-64.00	-67.00	-6.00	-5.00	-1.00
	8.00	12.00	-95.00	-43.00	-25.00	18.00	-7.00
	9.00	16.00	-105.00	14.00	-21.00	13.00	-3.00
	9.00	31.00	-42.00	62.00	-16.00	47.00	-2.00
	5.00	45.00	-15.00	60.00	-16.00	55.00	-6.00
	1.00	36.00	-31.00	51.00	-1.00	26.00	5.00
	-6.00	19.00	-196.00	79.00	63.00	15.00	14.00
	-1.00	-10.00	-226.00	54.00	91.00	3.00	20.00
	10.00	-12.00	-198.00	36.00	82.00	-8.00	27.00
	18.00	8.00	-71.00	14.00	85.00	-40.00	12.00
	13.00	-1.00	94.00	9.00	83.00	-38.00	8.00
	5.00	3.00	209.00	-30.00	22.00	12.00	-7.00
	-6.00	-3.00	268.00	-55.00	-30.00	9.00	-4.00
	-18.00	24.00	408.00	-31.00	-65.00	8.00	8.00
	-7.00	17.00	213.00	78.00	-74.00	45.00	7.00
	-22.00	-7.00	-11.00	101.00	-78.00	42.00	-6.00
	-16.00	-3.00	-25.00	27.00	-60.00	6.00	0.00
	-10.00	-4.00	-45.00	3.00	-37.00	0.00	12.00
	-1.00	7.00	113.00	-10.00	-11.00	6.00	18.00
	1.00	15.00	148.00	-38.00	-10.00	12.00	-3.00
	8.00	14.00	-92.00	-64.00	32.00	9.00	-21.00
	6.00	19.00	-248.00	-93.00	78.00	2.00	-25.00
	2.00	23.00	-295.00	0.00	64.00	-5.00	-19.00
	-4.00	21.00	-156.00	43.00	37.00	11.00	-8.00
	-7.00	19.00	51.00	-2.00	21.00	39.00	-1.00
	-9.00	19.00	246.00	-35.00	16.00	23.00	-5.00
	-22.00	14.00	199.00	-29.00	-13.00	18.00	7.00
	-19.00	26.00	106.00	-54.00	-1.00	20.00	10.00
	6.00	33.00	0.00	-69.00	9.00	40.00	21.00
	6.00	36.00	-65.00	-46.00	31.00	53.00	19.00
	-13.00	25.00	-104.00	18.00	21.00	30.00	9.00
	-17.00	4.00	15.00	-3.00	15.00	14.00	11.00
	-38.00	10.00	117.00	-15.00	4.00	-10.00	3.00
	-32.00	20.00	60.00	44.00	-2.00	-11.00	-2.00
	-29.00	26.00	-3.00	54.00	-4.00	-5.00	-1.00
	-33.00	28.00	-56.00	42.00	15.00	-20.00	-10.00
	-34.00	16.00	-273.00	80.00	13.00	-22.00	-30.00
	-32.00	4.00	-437.00	76.00	23.00	-15.00	-21.00
	-33.00	1.00	-319.00	31.00	24.00	-29.00	-7.00
	-25.00	-8.00	-125.00	23.00	25.00	-32.00	-18.00
	-13.00	2.00	-52.00	45.00	25.00	-31.00	-16.00
	-2.00	2.00	276.00	13.00	-24.00	-11.00	-4.00
	1.00	3.00	382.00	-26.00	-18.00	20.00	2.00
	3.00	22.00	148.00	-29.00	23.00	57.00	3.00
	4.00	20.00	-68.00	-9.00	20.00	11.00	2.00
	0.00	25.00	-43.00	2.00	19.00	-6.00	8.00
	-4.00	40.00	-74.00	24.00	15.00	15.00	13.00
	-10.00	40.00	-29.00	4.00	28.00	27.00	19.00
	-6.00	37.00	224.00	-2.00	22.00	35.00	25.00
	9.00	21.00	63.00	54.00	4.00	22.00	4.00
	15.00	19.00	-263.00	83.00	38.00	9.00	7.00
	18.00	6.00	-271.00	49.00	51.00	-3.00	11.00
	24.00	-2.00	-58.00	10.00	38.00	2.00	9.00
	28.00	-10.00	117.00	-3.00	34.00	3.00	-2.00
	34.00	-4.00	324.00	-25.00	9.00	6.00	-6.00
	22.00	8.00	507.00	-67.00	-17.00	2.00	3.00
	22.00	18.00	320.00	-46.00	-35.00	14.00	10.00
	25.00	28.00	144.00	3.00	-13.00	16.00	2.00
	16.00	34.00	-9.00	40.00	8.00	13.00	-4.00
	12.00	11.00	-39.00	14.00	2.00	6.00	-9.00
	7.00	4.00	22.00	-38.00	-27.00	17.00	-14.00
	1.00	14.00	-22.00	-33.00	2.00	16.00	-14.00
	-6.00	23.00	-54.00	1.00	21.00	15.00	-12.00
	-1.00	21.00	-74.00	7.00	15.00	-2.00	-4.00
	-4.00	27.00	-85.00	11.00	24.00	-8.00	-1.00
	-3.00	31.00	-198.00	34.00	53.00	4.00	3.00
	4.00	26.00	-227.00	44.00	56.00	-9.00	11.00
	10.00	14.00	-205.00	51.00	49.00	-8.00	12.00
	16.00	12.00	-142.00	43.00	48.00	-19.00	7.00
	18.00	11.00	-119.00	48.00	50.00	-15.00	4.00
	12.00	10.00	-41.00	57.00	57.00	27.00	7.00
	5.00	3.00	48.00	-26.00	22.00	1.00	3.00
	-2.00	-4.00	139.00	-110.00	2.00	28.00	5.00
	-3.00	8.00	192.00	-77.00	-21.00	21.00	11.00
	7.00	5.00	231.00	-24.00	-21.00	43.00	8.00
	6.00	-1.00	191.00	-58.00	-19.00	37.00	-3.00
	10.00	3.00	39.00	-43.00	-6.00	12.00	-7.00
	1.00	1.00	-66.00	46.00	-7.00	3.00	-8.00
	1.00	9.00	-127.00	82.00	-6.00	9.00	-2.00
	2.00	8.00	-85.00	32.00	-10.00	-10.00	7.00
	-1.00	12.00	-87.00	16.00	-14.00	-47.00	11.00
	-11.00	14.00	-130.00	50.00	5.00	-34.00	18.00
	-11.00	14.00	-60.00	25.00	13.00	-18.00	19.00
	-9.00	27.00	39.00	12.00	40.00	1.00	5.00
	-15.00	38.00	-4.00	43.00	42.00	22.00	-8.00
	0.00	29.00	-97.00	93.00	6.00	67.00	-36.00
	-5.00	13.00	-94.00	65.00	0.00	40.00	-22.00
	-17.00	11.00	83.00	0.00	10.00	8.00	-10.00
	-24.00	-12.00	113.00	-50.00	7.00	-11.00	10.00
	-22.00	4.00	-89.00	-4.00	10.00	-14.00	2.00
	-16.00	11.00	-241.00	-51.00	11.00	-8.00	1.00
	-12.00	19.00	-140.00	-67.00	0.00	6.00	-5.00
	-20.00	7.00	-9.00	-72.00	22.00	25.00	-13.00
	-31.00	10.00	242.00	-4.00	12.00	38.00	-5.00
	-33.00	6.00	230.00	78.00	9.00	72.00	3.00
	-35.00	13.00	159.00	51.00	23.00	61.00	7.00
	-31.00	17.00	134.00	-3.00	19.00	-2.00	4.00
	-16.00	22.00	49.00	2.00	5.00	-18.00	-8.00
	-3.00	23.00	-10.00	15.00	3.00	-22.00	-11.00
	-7.00	40.00	-8.00	35.00	4.00	-27.00	-1.00
	-10.00	16.00	-50.00	64.00	-3.00	-4.00	9.00
	4.00	10.00	-99.00	52.00	22.00	-22.00	17.00
	23.00	-16.00	-94.00	3.00	20.00	-38.00	13.00
