
-74.00	-24.00	32.00	-72.00	-29.00	-143.00	32.00
-63.00	-35.00	47.00	-15.00	-11.00	-46.00	32.00
-38.00	-37.00	57.00	12.00	8.00	-7.00	50.00
-27.00	-37.00	12.00	84.00	11.00	-21.00	30.00
-47.00	-62.00	-66.00	101.00	25.00	-26.00	-36.00
-14.00	-70.00	-125.00	-16.00	3.00	40.00	-58.00
22.00	-67.00	100.00	-104.00	-26.00	49.00	-50.00
27.00	-54.00	226.00	-132.00	-21.00	73.00	6.00
28.00	-51.00	205.00	-103.00	-9.00	94.00	70.00
38.00	-33.00	227.00	-85.00	24.00	36.00	61.00
32.00	-20.00	240.00	-95.00	29.00	-172.00	39.00
29.00	-16.00	48.00	-89.00	32.00	-95.00	19.00
-6.00	-15.00	-225.00	-25.00	25.00	-2.00	-1.00
-26.00	-33.00	-267.00	54.00	1.00	17.00	8.00
-57.00	-33.00	-118.00	36.00	-2.00	20.00	-10.00
-61.00	-31.00	-41.00	24.00	2.00	33.00	13.00
-64.00	-47.00	-48.00	91.00	22.00	43.00	42.00
-62.00	-40.00	-94.00	145.00	23.00	47.00	33.00
-17.00	-3.00	-81.00	136.00	33.00	50.00	18.00
67.00	35.00	-43.00	157.00	17.00	47.00	14.00
101.00	62.00	-28.00	117.00	-47.00	28.00	-1.00
82.00	93.00	111.00	49.00	-83.00	-2.00	-14.00
54.00	121.00	175.00	45.00	-37.00	2.00	5.00
31.00	134.00	152.00	43.00	5.00	-48.00	14.00
6.00	125.00	166.00	-14.00	34.00	-64.00	-6.00
0.00	132.00	200.00	-78.00	38.00	-18.00	-14.00
52.00	115.00	118.00	-127.00	26.00	18.00	-11.00
55.00	82.00	112.00	-169.00	1.00	26.00	9.00
66.00	39.00	119.00	-257.00	-24.00	-2.00	-16.00
20.00	-24.00	5.00	-285.00	-22.00	45.00	-35.00
-53.00	-81.00	-191.00	-156.00	1.00	86.00	-24.00
-100.00	-110.00	-235.00	2.00	6.00	71.00	-19.00
-160.00	-89.00	-100.00	104.00	15.00	71.00	-53.00
-144.00	-48.00	32.00	209.00	19.00	-18.00	-94.00
-125.00	2.00	123.00	261.00	35.00	-150.00	-71.00
-118.00	48.00	89.00	243.00	28.00	-132.00	-27.00
-121.00	53.00	58.00	149.00	23.00	-44.00	-24.00
-95.00	73.00	12.00	95.00	38.00	29.00	127.00
-73.00	101.00	-25.00	40.00	29.00	12.00	141.00
-39.00	120.00	-40.00	85.00	53.00	24.00	37.00
-20.00	123.00	-79.00	108.00	76.00	28.00	-3.00
12.00	100.00	-65.00	101.00	57.00	21.00	-20.00
27.00	84.00	86.00	16.00	49.00	19.00	-26.00
47.00	62.00	230.00	-37.00	47.00	25.00	-10.00
43.00	31.00	351.00	-122.00	48.00	40.00	39.00
34.00	14.00	451.00	-160.00	54.00	48.00	37.00
21.00	-4.00	288.00	-184.00	65.00	59.00	-8.00
16.00	-52.00	1.00	-175.00	64.00	52.00	-26.00
29.00	-82.00	-255.00	-105.00	61.00	6.00	-20.00
39.00	-104.00	-484.00	-146.00	33.00	22.00	-50.00
56.00	-79.00	-495.00	-81.00	22.00	83.00	-42.00
63.00	-21.00	-393.00	-11.00	-2.00	57.00	-8.00
67.00	12.00	-251.00	65.00	-39.00	24.00	26.00
74.00	8.00	-116.00	211.00	-35.00	15.00	34.00
73.00	6.00	5.00	256.00	-36.00	-111.00	10.00
65.00	18.00	69.00	296.00	-35.00	-124.00	-11.00
35.00	23.00	231.00	334.00	-17.00	-31.00	8.00
17.00	30.00	216.00	255.00	-11.00	-7.00	-21.00
20.00	36.00	231.00	-23.00	-24.00	7.00	-46.00
46.00	46.00	65.00	-69.00	-36.00	46.00	-36.00
59.00	35.00	-215.00	35.00	-71.00	74.00	26.00
63.00	27.00	-334.00	89.00	-81.00	77.00	61.00
68.00	20.00	-418.00	145.00	-41.00	79.00	62.00
93.00	17.00	-480.00	204.00	8.00	-7.00	66.00
98.00	-8.00	-570.00	272.00	51.00	-118.00	51.00
86.00	-54.00	-571.00	289.00	38.00	-34.00	18.00
0.00	-96.00	-423.00	102.00	21.00	-6.00	-7.00
-83.00	-104.00	-109.00	-38.00	9.00	-5.00	-7.00
-148.00	-88.00	130.00	-63.00	-10.00	-15.00	-10.00
-200.00	-60.00	250.00	-119.00	-14.00	-32.00	-3.00
-223.00	-42.00	351.00	-162.00	11.00	-14.00	-2.00
-158.00	-30.00	498.00	-187.00	45.00	18.00	-20.00
-51.00	-68.00	584.00	-216.00	50.00	27.00	-32.00
27.00	-126.00	618.00	-245.00	46.00	24.00	18.00
90.00	-105.00	497.00	-253.00	52.00	38.00	-33.00
68.00	-25.00	309.00	-243.00	61.00	41.00	-42.00
51.00	48.00	156.00	-214.00	64.00	34.00	-20.00
49.00	107.00	18.00	-152.00	50.00	26.00	16.00
39.00	143.00	-101.00	-102.00	44.00	37.00	-13.00
3.00	162.00	4.00	-76.00	18.00	43.00	-28.00
-44.00	181.00	83.00	-79.00	4.00	34.00	4.00
-38.00	213.00	94.00	-117.00	-20.00	20.00	1.00
-59.00	212.00	-6.00	-90.00	-11.00	21.00	-18.00
-42.00	185.00	-66.00	-20.00	11.00	35.00	-3.00
3.00	137.00	-110.00	87.00	-15.00	28.00	24.00
22.00	80.00	-271.00	192.00	-57.00	-10.00	19.00
-9.00	40.00	-330.00	252.00	-47.00	1.00	9.00
-24.00	25.00	-176.00	247.00	-23.00	12.00	6.00
-52.00	15.00	-7.00	185.00	-6.00	-30.00	-10.00
-79.00	0.00	192.00	63.00	26.00	-77.00	-22.00
-50.00	-18.00	165.00	-27.00	9.00	-67.00	-28.00
13.00	-28.00	146.00	-80.00	-40.00	-17.00	-27.00
92.00	-44.00	56.00	-131.00	-49.00	-7.00	-22.00
179.00	-59.00	-38.00	-85.00	-85.00	4.00	-10.00
264.00	-69.00	-13.00	-43.00	-74.00	16.00	28.00
234.00	-74.00	-10.00	-34.00	-12.00	33.00	64.00
150.00	-73.00	-58.00	-12.00	44.00	30.00	77.00
47.00	-87.00	-78.00	48.00	98.00	24.00	58.00
-35.00	-135.00	-162.00	71.00	127.00	22.00	57.00
-106.00	-200.00	-37.00	54.00	147.00	18.00	46.00
-178.00	-178.00	249.00	-69.00	170.00	20.00	12.00
-241.00	-88.00	265.00	-169.00	133.00	-14.00	-31.00
-247.00	14.00	222.00	-182.00	121.00	-5.00	-56.00
-205.00	81.00	197.00	-122.00	132.00	31.00	-113.00
-135.00	118.00	117.00	-65.00	135.00	38.00	-125.00
-68.00	146.00	96.00	14.00	115.00	36.00	-84.00
-21.00	158.00	-74.00	125.00	39.00	18.00	-116.00
3.00	161.00	-236.00	209.00	-24.00	22.00	-43.00
8.00	158.00	-17.00	160.00	-67.00	8.00	36.00
34.00	140.00	-14.00	111.00	-81.00	8.00	134.00
52.00	109.00	-107.00	90.00	-81.00	1.00	125.00
54.00	68.00	-144.00	83.00	-76.00	7.00	83.00
48.00	36.00	-143.00	66.00	-69.00	33.00	19.00
51.00	22.00	-40.00	5.00	-57.00	37.00	62.00
57.00	19.00	-34.00	8.00	-41.00	25.00	-9.00
56.00	15.00	-40.00	18.00	-27.00	-2.00	-19.00
68.00	0.00	-33.00	1.00	-14.00	-2.00	-28.00
85.00	-21.00	20.00	-35.00	11.00	29.00	32.00
68.00	-40.00	-15.00	-37.00	27.00	35.00	-18.00
44.00	-38.00	-92.00	5.00	34.00	36.00	-48.00
27.00	-28.00	-113.00	48.00	19.00	79.00	-15.00
24.00	-31.00	-65.00	89.00	12.00	85.00	-40.00
22.00	-35.00	0.00	124.00	12.00	55.00	-39.00
21.00	-29.00	-40.00	143.00	-4.00	23.00	-20.00
28.00	-22.00	-67.00	119.00	-20.00	-55.00	19.00
26.00	-14.00	-125.00	94.00	-22.00	-158.00	-28.00
30.00	-17.00	-161.00	56.00	-27.00	-76.00	-7.00
32.00	-13.00	-177.00	12.00	-21.00	1.00	12.00
20.00	-31.00	-165.00	-42.00	-19.00	-27.00	10.00
18.00	-56.00	-107.00	-81.00	-18.00	-30.00	-6.00
10.00	-71.00	-8.00	-83.00	-7.00	17.00	23.00
-3.00	-76.00	107.00	-70.00	-9.00	22.00	7.00
-19.00	-85.00	247.00	-80.00	-7.00	14.00	5.00
-10.00	-66.00	348.00	-106.00	20.00	24.00	-9.00
1.00	-35.00	330.00	-63.00	42.00	5.00	16.00
-7.00	8.00	283.00	-23.00	47.00	4.00	34.00
-4.00	38.00	210.00	-16.00	33.00	9.00	42.00
-7.00	82.00	127.00	-78.00	11.00	-2.00	130.00
-9.00	103.00	208.00	-125.00	4.00	-9.00	-91.00
-33.00	98.00	130.00	-57.00	17.00	21.00	-121.00
-1.00	112.00	199.00	20.00	-1.00	34.00	15.00
63.00	122.00	378.00	-15.00	-18.00	50.00	35.00
87.00	120.00	374.00	-55.00	-5.00	74.00	21.00
68.00	84.00	104.00	-20.00	1.00	76.00	16.00
39.00	31.00	-178.00	70.00	-8.00	60.00	-7.00
-26.00	-2.00	-263.00	84.00	-18.00	-47.00	-11.00
-81.00	-12.00	-461.00	51.00	-11.00	-87.00	-31.00
-126.00	-11.00	-529.00	125.00	-11.00	-53.00	-60.00
-117.00	-8.00	-425.00	193.00	2.00	-43.00	9.00
-157.00	-22.00	-331.00	226.00	29.00	10.00	197.00
-157.00	-32.00	-378.00	212.00	30.00	39.00	115.00
-116.00	-13.00	-408.00	165.00	0.00	79.00	49.00
-100.00	15.00	-348.00	162.00	-5.00	135.00	58.00
-95.00	39.00	-232.00	159.00	26.00	146.00	34.00
-118.00	70.00	-105.00	55.00	23.00	121.00	-13.00
-118.00	74.00	-4.00	-69.00	28.00	-39.00	-57.00
-106.00	62.00	134.00	-114.00	49.00	-337.00	-64.00
-61.00	52.00	225.00	-110.00	63.00	-388.00	-86.00
-20.00	41.00	236.00	-82.00	83.00	-137.00	-76.00
34.00	34.00	199.00	-125.00	82.00	-34.00	-45.00
86.00	11.00	210.00	-130.00	78.00	27.00	6.00
159.00	-57.00	240.00	-83.00	50.00	53.00	44.00
214.00	-149.00	341.00	-137.00	22.00	79.00	49.00
256.00	-168.00	447.00	-252.00	-12.00	129.00	5.00
246.00	-114.00	434.00	-301.00	-51.00	119.00	-13.00
219.00	-50.00	245.00	-272.00	-108.00	91.00	-3.00
167.00	26.00	35.00	-163.00	-111.00	78.00	-13.00
118.00	75.00	-192.00	-105.00	-90.00	59.00	-26.00
42.00	122.00	-395.00	48.00	-49.00	47.00	8.00
-64.00	126.00	-399.00	305.00	0.00	43.00	36.00
-125.00	115.00	-306.00	425.00	60.00	30.00	29.00
-178.00	121.00	-127.00	365.00	98.00	17.00	17.00
-231.00	121.00	25.00	253.00	121.00	3.00	-50.00
-225.00	94.00	95.00	153.00	125.00	18.00	-73.00
-164.00	49.00	159.00	41.00	128.00	69.00	-83.00
-109.00	22.00	174.00	-62.00	135.00	71.00	-82.00
-62.00	10.00	180.00	-163.00	132.00	55.00	-35.00
7.00	17.00	271.00	-257.00	101.00	55.00	5.00
62.00	43.00	436.00	-311.00	65.00	-65.00	11.00
88.00	38.00	504.00	-253.00	27.00	-133.00	63.00
114.00	48.00	359.00	-126.00	0.00	-38.00	69.00
116.00	29.00	248.00	6.00	6.00	33.00	16.00
97.00	19.00	19.00	59.00	2.00	21.00	-19.00
71.00	11.00	-383.00	94.00	2.00	-6.00	-15.00
52.00	5.00	-653.00	210.00	-9.00	-8.00	33.00
50.00	-13.00	-639.00	296.00	-33.00	15.00	106.00
30.00	-17.00	-500.00	293.00	-41.00	23.00	85.00
25.00	-9.00	-246.00	287.00	-26.00	33.00	34.00
10.00	-21.00	-1.00	212.00	-28.00	30.00	-37.00
0.00	-29.00	51.00	82.00	-41.00	12.00	-94.00
16.00	-60.00	56.00	-36.00	-45.00	10.00	-118.00
-6.00	-154.00	58.00	-143.00	-40.00	19.00	-69.00
6.00	-246.00	101.00	-251.00	-30.00	24.00	-18.00
32.00	-271.00	114.00	-325.00	-43.00	7.00	9.00
34.00	-191.00	114.00	-241.00	-60.00	-59.00	60.00
44.00	-109.00	31.00	-102.00	-41.00	-46.00	38.00
120.00	-11.00	54.00	70.00	-29.00	12.00	-22.00
156.00	88.00	-91.00	285.00	-19.00	12.00	4.00
189.00	158.00	-274.00	526.00	-15.00	12.00	0.00
137.00	205.00	-244.00	503.00	-57.00	37.00	-23.00
42.00	228.00	-252.00	321.00	-103.00	-34.00	5.00
-49.00	220.00	-233.00	181.00	-98.00	-50.00	1.00
-134.00	200.00	-103.00	96.00	-63.00	-21.00	43.00
-226.00	161.00	90.00	44.00	-4.00	4.00	25.00
-284.00	124.00	203.00	-50.00	48.00	11.00	5.00
-295.00	85.00	243.00	-162.00	72.00	1.00	-5.00
-217.00	45.00	434.00	-281.00	81.00	2.00	-15.00
-137.00	18.00	351.00	-347.00	89.00	-8.00	-22.00
-69.00	8.00	165.00	-335.00	99.00	-6.00	-33.00
3.00	-9.00	-14.00	-271.00	112.00	14.00	-62.00
37.00	-22.00	-166.00	-177.00	99.00	23.00	-59.00
17.00	-27.00	-190.00	-61.00	59.00	19.00	-39.00
16.00	-47.00	-185.00	98.00	41.00	14.00	-88.00
-40.00	-94.00	-94.00	136.00	29.00	28.00	-114.00
-45.00	-158.00	140.00	47.00	-9.00	44.00	45.00
6.00	-199.00	159.00	-42.00	-77.00	56.00	104.00
38.00	-173.00	78.00	-192.00	-86.00	45.00	78.00
62.00	-108.00	46.00	-278.00	-63.00	33.00	68.00
59.00	-48.00	117.00	-273.00	0.00	15.00	61.00
40.00	8.00	35.00	-204.00	57.00	-6.00	61.00
33.00	53.00	52.00	-127.00	118.00	37.00	71.00
34.00	90.00	271.00	-49.00	154.00	60.00	38.00
53.00	116.00	444.00	11.00	140.00	59.00	37.00
52.00	123.00	274.00	67.00	134.00	11.00	-1.00
-11.00	110.00	27.00	93.00	124.00	-42.00	-44.00
-30.00	95.00	-70.00	142.00	99.00	-30.00	8.00
-34.00	61.00	-50.00	86.00	71.00	7.00	-34.00
-32.00	-5.00	-89.00	85.00	19.00	11.00	-30.00
19.00	-38.00	-255.00	166.00	-23.00	42.00	-30.00
91.00	-15.00	-419.00	180.00	-31.00	-33.00	-21.00
135.00	27.00	-447.00	126.00	-39.00	-77.00	-47.00
144.00	46.00	-399.00	9.00	-65.00	-7.00	-6.00
99.00	47.00	-231.00	-9.00	-58.00	29.00	16.00
55.00	57.00	-80.00	-47.00	-72.00	16.00	-3.00
13.00	50.00	42.00	22.00	-92.00	-44.00	-3.00
-60.00	27.00	104.00	144.00	-78.00	-37.00	-22.00
-110.00	19.00	122.00	272.00	-50.00	-71.00	20.00
-120.00	28.00	148.00	293.00	-35.00	-67.00	30.00
-61.00	26.00	107.00	190.00	-23.00	-1.00	-22.00
2.00	16.00	95.00	27.00	11.00	49.00	-14.00
53.00	16.00	197.00	-226.00	29.00	61.00	31.00
87.00	-2.00	235.00	-333.00	26.00	53.00	41.00
91.00	-17.00	355.00	-323.00	24.00	59.00	22.00
66.00	-37.00	514.00	-348.00	24.00	62.00	-8.00
54.00	-53.00	565.00	-345.00	37.00	102.00	-34.00
34.00	-39.00	478.00	-251.00	34.00	165.00	-46.00
28.00	-36.00	98.00	-122.00	27.00	184.00	28.00
51.00	-56.00	-241.00	67.00	36.00	149.00	42.00
28.00	-62.00	-530.00	251.00	23.00	70.00	7.00
-18.00	-57.00	-693.00	376.00	0.00	-127.00	-24.00
-58.00	-29.00	-682.00	393.00	-22.00	-315.00	-42.00
-89.00	13.00	-634.00	387.00	-23.00	-216.00	-37.00
-124.00	47.00	-418.00	404.00	-19.00	-84.00	8.00
-118.00	69.00	-292.00	343.00	-22.00	-23.00	39.00
-103.00	94.00	-168.00	211.00	-9.00	22.00	45.00
-83.00	107.00	-48.00	92.00	15.00	34.00	19.00
-66.00	95.00	27.00	35.00	22.00	-7.00	-42.00
-66.00	68.00	122.00	-22.00	27.00	15.00	-43.00
-66.00	60.00	205.00	-78.00	36.00	43.00	-82.00
-46.00	64.00	296.00	-115.00	31.00	-29.00	-104.00
7.00	74.00	374.00	-129.00	63.00	11.00	-61.00
56.00	74.00	294.00	-121.00	71.00	14.00	23.00
85.00	73.00	94.00	-126.00	31.00	-23.00	18.00
85.00	63.00	-17.00	-58.00	22.00	-12.00	38.00
121.00	33.00	-54.00	-21.00	33.00	12.00	118.00
138.00	9.00	-168.00	46.00	39.00	32.00	96.00
107.00	-10.00	-104.00	117.00	37.00	51.00	35.00
54.00	-41.00	-36.00	128.00	6.00	48.00	21.00
-17.00	-63.00	41.00	49.00	-18.00	27.00	75.00
-101.00	-46.00	92.00	-56.00	-27.00	30.00	72.00
-209.00	-23.00	67.00	-94.00	-26.00	49.00	38.00
-258.00	-6.00	92.00	-98.00	-19.00	50.00	23.00
-285.00	0.00	156.00	-116.00	-47.00	-4.00	24.00
-262.00	9.00	197.00	-125.00	-49.00	-21.00	17.00
-172.00	15.00	198.00	-112.00	-31.00	-1.00	-15.00
-71.00	10.00	68.00	-108.00	3.00	26.00	-47.00
10.00	9.00	-53.00	-111.00	25.00	48.00	-46.00
96.00	7.00	-78.00	-157.00	49.00	72.00	-42.00
150.00	5.00	-40.00	-181.00	61.00	45.00	-63.00
159.00	-9.00	-58.00	-182.00	61.00	-26.00	-58.00
136.00	-13.00	-7.00	-244.00	41.00	-37.00	-54.00
141.00	-22.00	173.00	-288.00	23.00	19.00	-56.00
131.00	-63.00	235.00	-293.00	16.00	28.00	-40.00
94.00	-117.00	145.00	-243.00	28.00	49.00	-49.00
71.00	-119.00	15.00	-66.00	53.00	86.00	-69.00
4.00	-95.00	68.00	142.00	57.00	64.00	1.00
-18.00	-58.00	69.00	176.00	65.00	34.00	9.00
7.00	-22.00	-122.00	252.00	71.00	-3.00	-57.00
19.00	8.00	-145.00	366.00	41.00	-42.00	-51.00
34.00	30.00	-58.00	452.00	32.00	-65.00	-30.00
6.00	57.00	234.00	254.00	14.00	-47.00	27.00
-20.00	79.00	282.00	126.00	3.00	-39.00	27.00
-36.00	87.00	184.00	48.00	9.00	-19.00	28.00
-35.00	85.00	77.00	-5.00	23.00	-6.00	29.00
-41.00	82.00	0.00	13.00	30.00	15.00	29.00
-30.00	78.00	12.00	18.00	24.00	34.00	10.00
-15.00	68.00	-133.00	13.00	31.00	33.00	-5.00
22.00	49.00	-295.00	13.00	36.00	25.00	-28.00
66.00	22.00	-136.00	-10.00	14.00	30.00	-40.00
97.00	2.00	-26.00	44.00	16.00	34.00	-7.00
91.00	-3.00	-57.00	169.00	11.00	23.00	63.00
108.00	-7.00	-160.00	227.00	8.00	-2.00	60.00
124.00	-37.00	-129.00	169.00	-4.00	11.00	21.00
144.00	-62.00	152.00	65.00	-22.00	25.00	7.00
155.00	-60.00	177.00	79.00	-41.00	44.00	6.00
121.00	-37.00	70.00	168.00	-45.00	33.00	18.00
90.00	-4.00	-50.00	205.00	-46.00	21.00	28.00
68.00	43.00	-330.00	155.00	-44.00	9.00	12.00
26.00	63.00	-713.00	116.00	-65.00	-61.00	-27.00
-27.00	72.00	-874.00	103.00	-68.00	-171.00	-21.00
-50.00	96.00	-564.00	75.00	-37.00	-77.00	-26.00
-50.00	101.00	-220.00	13.00	-12.00	-29.00	-51.00
-69.00	97.00	-13.00	-31.00	5.00	21.00	3.00
-90.00	94.00	131.00	-66.00	2.00	43.00	47.00
-86.00	91.00	202.00	-104.00	-13.00	45.00	29.00
-73.00	74.00	223.00	-142.00	-10.00	20.00	36.00
-54.00	41.00	132.00	-188.00	-1.00	-15.00	17.00
-41.00	11.00	108.00	-293.00	5.00	-21.00	10.00
-14.00	-20.00	102.00	-332.00	23.00	26.00	1.00
4.00	-36.00	136.00	-315.00	16.00	34.00	2.00
14.00	-25.00	155.00	-245.00	19.00	25.00	8.00
18.00	-28.00	247.00	-194.00	10.00	28.00	-2.00
11.00	-47.00	263.00	-127.00	12.00	77.00	-24.00
8.00	-64.00	339.00	-62.00	9.00	91.00	-12.00
-15.00	-54.00	487.00	-40.00	25.00	81.00	-124.00
-32.00	-7.00	444.00	-62.00	42.00	85.00	-52.00
-13.00	46.00	249.00	-114.00	44.00	-1.00	61.00
9.00	75.00	42.00	-13.00	60.00	-122.00	99.00
-1.00	90.00	-120.00	101.00	80.00	-48.00	111.00
5.00	88.00	-188.00	233.00	103.00	55.00	47.00
3.00	72.00	-290.00	383.00	97.00	25.00	19.00
-24.00	41.00	-333.00	459.00	66.00	-47.00	19.00
-54.00	14.00	-281.00	285.00	34.00	-54.00	-2.00
-63.00	4.00	-141.00	111.00	8.00	-102.00	13.00
-19.00	4.00	-15.00	38.00	10.00	-22.00	-6.00
38.00	6.00	-21.00	-48.00	-17.00	11.00	-64.00
79.00	8.00	12.00	-123.00	-32.00	16.00	-48.00
135.00	-2.00	174.00	-154.00	-19.00	28.00	-38.00
139.00	-24.00	331.00	-175.00	1.00	58.00	-29.00
87.00	-64.00	339.00	-136.00	32.00	81.00	-6.00
-33.00	-89.00	231.00	-50.00	30.00	59.00	2.00
-124.00	-87.00	31.00	29.00	5.00	36.00	-19.00
-138.00	-51.00	51.00	82.00	-26.00	3.00	-40.00
-210.00	-12.00	26.00	154.00	-11.00	1.00	-40.00
-209.00	22.00	-98.00	153.00	0.00	1.00	-36.00
-160.00	49.00	-130.00	125.00	12.00	13.00	-45.00
-133.00	77.00	-144.00	40.00	23.00	16.00	-27.00
-118.00	93.00	-119.00	-35.00	31.00	12.00	11.00
-122.00	98.00	-37.00	-102.00	6.00	-11.00	-23.00
-71.00	95.00	146.00	-161.00	-20.00	-15.00	-55.00
8.00	94.00	169.00	-181.00	-18.00	1.00	-34.00
87.00	75.00	127.00	-153.00	-29.00	10.00	11.00
135.00	58.00	121.00	-147.00	-17.00	17.00	10.00
149.00	48.00	190.00	-134.00	-8.00	17.00	-35.00
146.00	48.00	102.00	-72.00	-5.00	23.00	-12.00
116.00	41.00	-186.00	8.00	8.00	25.00	32.00
39.00	24.00	-475.00	101.00	-1.00	10.00	41.00
-44.00	-1.00	-501.00	166.00	4.00	6.00	147.00
-152.00	-2.00	-266.00	158.00	37.00	3.00	130.00
-187.00	-29.00	-200.00	179.00	56.00	4.00	13.00
-139.00	-42.00	-172.00	99.00	80.00	1.00	-27.00
-114.00	-57.00	-133.00	41.00	96.00	1.00	-29.00
-85.00	-69.00	-22.00	23.00	79.00	7.00	-13.00
-50.00	-63.00	77.00	-40.00	53.00	6.00	-2.00
-9.00	-51.00	157.00	-156.00	35.00	10.00	-2.00
49.00	-23.00	281.00	-191.00	21.00	17.00	4.00
107.00	6.00	293.00	-142.00	6.00	22.00	3.00
142.00	9.00	230.00	-97.00	-15.00	27.00	0.00
142.00	5.00	55.00	-102.00	-11.00	39.00	-31.00
141.00	-16.00	-29.00	-102.00	-4.00	59.00	-37.00
109.00	-27.00	-161.00	-153.00	-21.00	43.00	-30.00
94.00	-25.00	-161.00	-106.00	-41.00	24.00	-29.00
56.00	5.00	-62.00	3.00	-54.00	4.00	-8.00
23.00	11.00	-5.00	58.00	-54.00	-13.00	-8.00
4.00	-6.00	22.00	102.00	-39.00	-30.00	-11.00
-38.00	9.00	79.00	144.00	-9.00	-28.00	2.00
-54.00	39.00	49.00	216.00	29.00	-22.00	21.00
-30.00	32.00	-18.00	279.00	41.00	-11.00	29.00
9.00	16.00	13.00	276.00	41.00	8.00	32.00
38.00	-14.00	-26.00	300.00	39.00	-5.00	23.00
68.00	-20.00	-164.00	268.00	12.00	-34.00	29.00
71.00	-5.00	-112.00	229.00	6.00	-34.00	27.00
72.00	6.00	67.00	193.00	22.00	16.00	28.00
54.00	31.00	230.00	142.00	38.00	28.00	36.00
57.00	7.00	345.00	80.00	36.00	9.00	10.00
27.00	0.00	402.00	-41.00	31.00	-19.00	0.00
-24.00	3.00	375.00	-93.00	15.00	-21.00	1.00
-73.00	11.00	316.00	-181.00	23.00	5.00	-25.00
-80.00	27.00	59.00	-251.00	45.00	52.00	-16.00
-59.00	41.00	-152.00	-247.00	38.00	44.00	-15.00
-31.00	31.00	-225.00	-196.00	23.00	26.00	3.00
-25.00	22.00	-155.00	-125.00	-6.00	12.00	6.00
-28.00	21.00	-240.00	-67.00	-36.00	7.00	-12.00
-15.00	18.00	-179.00	51.00	-14.00	23.00	-10.00
6.00	16.00	-109.00	225.00	17.00	19.00	-31.00
10.00	-1.00	-252.00	273.00	12.00	20.00	-20.00
13.00	7.00	-429.00	269.00	-10.00	29.00	1.00
18.00	31.00	-502.00	248.00	-12.00	46.00	-1.00
26.00	38.00	-251.00	235.00	-28.00	59.00	-3.00
30.00	34.00	-54.00	182.00	-39.00	31.00	-44.00
40.00	42.00	202.00	-2.00	-84.00	-18.00	-64.00
46.00	60.00	499.00	-231.00	-131.00	-85.00	-93.00
62.00	52.00	699.00	-302.00	-101.00	-23.00	-31.00
96.00	40.00	528.00	-259.00	-55.00	25.00	-9.00
97.00	32.00	272.00	-179.00	-17.00	-31.00	55.00
58.00	16.00	-24.00	-9.00	39.00	-13.00	102.00
17.00	-8.00	-265.00	136.00	93.00	51.00	19.00
-47.00	-54.00	-585.00	175.00	131.00	58.00	-43.00
-118.00	-90.00	-728.00	153.00	130.00	44.00	-69.00
-131.00	-74.00	-502.00	115.00	133.00	38.00	-82.00
-103.00	-27.00	-275.00	57.00	120.00	-47.00	-43.00
-99.00	41.00	-183.00	7.00	111.00	-136.00	109.00
-117.00	90.00	-88.00	-34.00	85.00	-36.00	110.00
-92.00	135.00	-101.00	-75.00	63.00	-4.00	67.00
-113.00	155.00	9.00	-94.00	32.00	17.00	30.00
-112.00	157.00	172.00	-99.00	8.00	26.00	-13.00
-97.00	134.00	337.00	-95.00	-7.00	17.00	-51.00
-134.00	103.00	454.00	-94.00	-32.00	3.00	-41.00
-105.00	86.00	498.00	-135.00	-39.00	13.00	-23.00
-71.00	74.00	578.00	-147.00	-52.00	25.00	-22.00
-16.00	63.00	589.00	-135.00	-86.00	23.00	7.00
15.00	31.00	461.00	-170.00	-80.00	20.00	32.00
30.00	9.00	256.00	-174.00	-55.00	26.00	74.00
52.00	-43.00	92.00	-120.00	-15.00	31.00	67.00
56.00	-73.00	-110.00	-62.00	15.00	26.00	30.00
76.00	-92.00	-301.00	-63.00	35.00	4.00	-7.00
112.00	-89.00	-331.00	-73.00	65.00	-4.00	-27.00
123.00	-91.00	-351.00	-35.00	91.00	-11.00	-42.00
100.00	-74.00	-251.00	-60.00	87.00	63.00	-55.00
75.00	-56.00	-60.00	-146.00	80.00	133.00	-64.00
70.00	-20.00	112.00	-172.00	92.00	147.00	-40.00
73.00	17.00	164.00	-137.00	103.00	114.00	0.00
56.00	52.00	175.00	-121.00	91.00	55.00	24.00
49.00	62.00	245.00	-157.00	70.00	-85.00	4.00
81.00	17.00	173.00	-161.00	42.00	-122.00	0.00
115.00	-4.00	-115.00	51.00	12.00	-16.00	-7.00
108.00	-25.00	-410.00	349.00	-32.00	46.00	-8.00
87.00	-23.00	-409.00	525.00	-83.00	-3.00	-14.00
54.00	-4.00	-336.00	461.00	-108.00	-97.00	-31.00
57.00	15.00	-252.00	385.00	-87.00	-55.00	-25.00
84.00	30.00	-155.00	329.00	-71.00	-7.00	-5.00
99.00	44.00	-87.00	162.00	-55.00	8.00	-12.00
60.00	44.00	14.00	81.00	-42.00	14.00	-28.00
-21.00	34.00	106.00	110.00	-24.00	-9.00	30.00
-86.00	22.00	93.00	92.00	-7.00	-19.00	75.00
-142.00	10.00	207.00	57.00	-6.00	-15.00	132.00
-186.00	0.00	265.00	5.00	2.00	-16.00	113.00
-205.00	-12.00	299.00	-35.00	8.00	6.00	46.00
-179.00	-11.00	282.00	-98.00	22.00	33.00	21.00
-162.00	4.00	284.00	-168.00	26.00	46.00	-37.00
-117.00	5.00	256.00	-206.00	40.00	52.00	-88.00
-64.00	-6.00	252.00	-246.00	63.00	38.00	-91.00
-15.00	-14.00	207.00	-302.00	65.00	33.00	-94.00
-6.00	-1.00	-2.00	-342.00	48.00	54.00	-74.00
27.00	21.00	-109.00	-265.00	37.00	69.00	56.00
81.00	20.00	-201.00	-37.00	24.00	82.00	70.00
129.00	-2.00	-334.00	231.00	3.00	78.00	22.00
170.00	-7.00	-466.00	330.00	-17.00	-22.00	9.00
190.00	-5.00	-422.00	386.00	-4.00	-72.00	-5.00
171.00	6.00	-388.00	399.00	26.00	-44.00	60.00
99.00	6.00	-408.00	410.00	3.00	-5.00	-5.00
29.00	-3.00	-318.00	370.00	-32.00	-33.00	-38.00
-72.00	-14.00	-108.00	274.00	-37.00	-76.00	-26.00
-123.00	-66.00	-26.00	157.00	-53.00	-142.00	-33.00
-113.00	-144.00	70.00	101.00	-32.00	-41.00	-24.00
-91.00	-172.00	146.00	58.00	-2.00	19.00	-8.00
-53.00	-139.00	104.00	7.00	15.00	13.00	72.00
-44.00	-58.00	50.00	-74.00	22.00	12.00	130.00
-40.00	29.00	99.00	-122.00	58.00	33.00	79.00
-49.00	101.00	127.00	-134.00	39.00	35.00	49.00
-46.00	133.00	80.00	-152.00	15.00	33.00	46.00
-29.00	160.00	97.00	-180.00	27.00	47.00	19.00
-77.00	157.00	262.00	-206.00	31.00	43.00	-13.00
-109.00	142.00	340.00	-194.00	30.00	34.00	46.00
-96.00	138.00	177.00	-161.00	38.00	20.00	1.00
-90.00	116.00	86.00	-127.00	-16.00	-7.00	-3.00
-46.00	87.00	78.00	-80.00	-30.00	-17.00	-11.00
-42.00	78.00	-69.00	-56.00	-35.00	-31.00	-38.00
-13.00	60.00	-71.00	-6.00	-34.00	-20.00	-52.00
23.00	52.00	33.00	-27.00	-35.00	14.00	-66.00
60.00	53.00	49.00	-43.00	15.00	36.00	-16.00
83.00	45.00	45.00	-65.00	57.00	45.00	34.00
93.00	35.00	66.00	-155.00	82.00	48.00	-33.00
136.00	20.00	100.00	-227.00	98.00	48.00	-35.00
165.00	-11.00	96.00	-206.00	96.00	63.00	-46.00
186.00	-35.00	89.00	-212.00	88.00	75.00	-39.00
146.00	-46.00	180.00	-295.00	65.00	66.00	-43.00
102.00	-62.00	101.00	-239.00	25.00	54.00	-53.00
33.00	-158.00	4.00	-64.00	-32.00	53.00	-37.00
-8.00	-258.00	85.00	105.00	-62.00	-81.00	14.00
-74.00	-274.00	210.00	101.00	-49.00	-128.00	41.00
-91.00	-224.00	240.00	13.00	-27.00	-47.00	-8.00
-76.00	-125.00	241.00	-48.00	1.00	13.00	-24.00
-53.00	-11.00	256.00	-83.00	32.00	47.00	-18.00
-48.00	111.00	79.00	-228.00	29.00	43.00	-4.00
-51.00	195.00	-56.00	-247.00	39.00	70.00	2.00
-18.00	248.00	-252.00	-183.00	58.00	37.00	26.00
13.00	274.00	-375.00	-15.00	56.00	-76.00	9.00
63.00	274.00	-587.00	216.00	79.00	-75.00	-29.00
88.00	248.00	-758.00	506.00	83.00	-33.00	-29.00
89.00	203.00	-703.00	746.00	62.00	49.00	7.00
43.00	150.00	-668.00	902.00	46.00	93.00	26.00
32.00	65.00	-497.00	781.00	14.00	83.00	18.00
5.00	11.00	-309.00	526.00	-7.00	50.00	4.00
-62.00	-50.00	-126.00	340.00	-13.00	-34.00	-12.00
-105.00	-85.00	33.00	207.00	-30.00	-152.00	-12.00
-121.00	-110.00	106.00	96.00	-41.00	-109.00	1.00
-143.00	-112.00	242.00	47.00	-44.00	-46.00	-5.00
-151.00	-74.00	355.00	-69.00	-24.00	-11.00	10.00
-123.00	-16.00	351.00	-239.00	-7.00	12.00	28.00
-82.00	25.00	346.00	-295.00	13.00	47.00	18.00
-33.00	53.00	345.00	-264.00	24.00	116.00	-9.00
-8.00	84.00	332.00	-174.00	32.00	123.00	-21.00
14.00	97.00	222.00	-74.00	45.00	113.00	-11.00
27.00	89.00	63.00	18.00	28.00	72.00	-6.00
61.00	70.00	-18.00	53.00	-6.00	17.00	-6.00
112.00	29.00	-40.00	59.00	-18.00	-164.00	-13.00
138.00	9.00	-40.00	-12.00	-20.00	-167.00	15.00
138.00	10.00	19.00	17.00	-32.00	-113.00	-35.00
120.00	8.00	60.00	67.00	-39.00	-43.00	-3.00
89.00	-8.00	52.00	26.00	-15.00	31.00	40.00
87.00	-18.00	49.00	-14.00	14.00	56.00	40.00
70.00	-22.00	51.00	-44.00	17.00	22.00	31.00
50.00	-37.00	7.00	-46.00	-8.00	-51.00	16.00
-27.00	-44.00	-83.00	-13.00	5.00	7.00	-34.00
-52.00	-48.00	-53.00	-34.00	25.00	43.00	-69.00
-106.00	-40.00	-41.00	-117.00	27.00	44.00	-89.00
-123.00	-34.00	-32.00	-134.00	33.00	57.00	-113.00
-136.00	-30.00	10.00	-119.00	43.00	75.00	-83.00
-97.00	-42.00	90.00	-125.00	6.00	65.00	167.00
-61.00	-47.00	153.00	-147.00	-12.00	45.00	166.00
15.00	-51.00	215.00	-163.00	-16.00	20.00	92.00
124.00	-69.00	194.00	-171.00	-34.00	-5.00	104.00
163.00	-61.00	90.00	-200.00	-33.00	-13.00	114.00
180.00	-42.00	316.00	-244.00	-39.00	39.00	134.00
147.00	-24.00	405.00	-277.00	-58.00	29.00	68.00
78.00	-17.00	252.00	-237.00	-67.00	15.00	-11.00
5.00	-23.00	98.00	-125.00	-29.00	15.00	-49.00
-78.00	-17.00	-156.00	-18.00	1.00	18.00	-49.00
-179.00	-24.00	-282.00	47.00	-18.00	-6.00	-54.00
-247.00	-28.00	-326.00	142.00	-6.00	-14.00	-57.00
-216.00	-7.00	-304.00	189.00	43.00	0.00	-51.00
-129.00	11.00	-143.00	128.00	119.00	2.00	-58.00
-55.00	4.00	99.00	14.00	171.00	2.00	-59.00
-17.00	-13.00	375.00	-96.00	164.00	24.00	-44.00
17.00	-13.00	342.00	-168.00	156.00	44.00	8.00
31.00	11.00	160.00	-194.00	141.00	40.00	0.00
75.00	25.00	-48.00	-212.00	127.00	49.00	-50.00
119.00	48.00	-148.00	-237.00	118.00	51.00	-53.00
144.00	44.00	-347.00	-169.00	98.00	35.00	-35.00
146.00	34.00	-520.00	46.00	73.00	30.00	-7.00
144.00	23.00	-569.00	260.00	7.00	11.00	-19.00
96.00	5.00	-460.00	390.00	-54.00	-28.00	-9.00
11.00	-42.00	-341.00	460.00	-67.00	-14.00	-4.00
-32.00	-41.00	-259.00	415.00	-75.00	-2.00	-4.00
-93.00	-14.00	-91.00	291.00	-99.00	-2.00	-10.00
-143.00	24.00	-19.00	137.00	-113.00	-32.00	0.00
-153.00	73.00	7.00	-31.00	-119.00	-36.00	-12.00
-128.00	113.00	75.00	-32.00	-71.00	-14.00	-9.00
-105.00	112.00	134.00	93.00	-23.00	-12.00	18.00
-90.00	82.00	120.00	170.00	3.00	-12.00	4.00
-41.00	90.00	175.00	136.00	27.00	-17.00	21.00
12.00	101.00	209.00	108.00	39.00	-21.00	61.00
29.00	106.00	102.00	123.00	50.00	-24.00	61.00
24.00	91.00	22.00	160.00	37.00	-4.00	28.00
30.00	76.00	101.00	74.00	14.00	35.00	23.00
54.00	54.00	147.00	-28.00	12.00	54.00	14.00
87.00	46.00	158.00	-146.00	15.00	44.00	11.00
108.00	45.00	88.00	-180.00	2.00	22.00	-7.00
105.00	41.00	60.00	-124.00	-15.00	7.00	-53.00
90.00	21.00	-16.00	31.00	0.00	-9.00	-67.00
83.00	0.00	-127.00	98.00	15.00	12.00	-47.00
73.00	-6.00	-113.00	172.00	11.00	24.00	-36.00
60.00	1.00	-73.00	187.00	15.00	15.00	25.00
42.00	11.00	-14.00	108.00	18.00	6.00	57.00
24.00	26.00	13.00	-4.00	6.00	1.00	93.00
23.00	41.00	91.00	-91.00	-2.00	1.00	51.00
41.00	42.00	119.00	-82.00	-2.00	5.00	7.00
20.00	42.00	129.00	-29.00	-5.00	14.00	-13.00
-3.00	47.00	188.00	-51.00	13.00	27.00	37.00
-28.00	44.00	178.00	-106.00	8.00	28.00	-20.00
-46.00	45.00	217.00	-99.00	-20.00	31.00	14.00
-65.00	39.00	214.00	-58.00	-32.00	35.00	-35.00
-60.00	28.00	179.00	-19.00	-31.00	32.00	-40.00
-47.00	18.00	112.00	11.00	-28.00	18.00	-9.00
-61.00	9.00	42.00	38.00	-37.00	50.00	1.00
-54.00	-10.00	173.00	7.00	-75.00	76.00	11.00
-5.00	-34.00	111.00	-4.00	-67.00	56.00	7.00
52.00	-44.00	175.00	-53.00	-35.00	9.00	12.00
69.00	-54.00	235.00	-78.00	15.00	-135.00	-15.00
60.00	-69.00	188.00	-24.00	67.00	-151.00	-29.00
-10.00	-43.00	121.00	-32.00	148.00	-67.00	-39.00
-69.00	-22.00	-209.00	5.00	165.00	-42.00	-24.00
-142.00	-28.00	-589.00	90.00	132.00	-33.00	22.00
-179.00	-26.00	-850.00	107.00	141.00	-6.00	32.00
-156.00	-13.00	-827.00	90.00	145.00	15.00	28.00
-92.00	-11.00	-570.00	11.00	131.00	30.00	22.00
-46.00	-22.00	-313.00	-70.00	95.00	42.00	25.00
-32.00	-30.00	-101.00	-150.00	46.00	45.00	29.00
24.00	-24.00	26.00	-176.00	7.00	42.00	-3.00
60.00	-28.00	84.00	-141.00	-12.00	54.00	-13.00
61.00	-25.00	152.00	-159.00	-20.00	76.00	-8.00
82.00	-21.00	172.00	-196.00	-18.00	97.00	-1.00
45.00	-23.00	446.00	-197.00	-20.00	107.00	-2.00
16.00	-26.00	701.00	-183.00	-30.00	97.00	-24.00
45.00	5.00	594.00	-122.00	-42.00	48.00	-13.00
73.00	40.00	332.00	32.00	-29.00	-75.00	-19.00
89.00	44.00	-39.00	220.00	1.00	-119.00	-40.00
19.00	44.00	-360.00	329.00	4.00	-91.00	-32.00
-21.00	45.00	-507.00	322.00	1.00	-28.00	-10.00
-52.00	21.00	-381.00	310.00	-14.00	-23.00	14.00
-43.00	-6.00	-210.00	235.00	-42.00	-27.00	24.00
-17.00	-6.00	-82.00	83.00	-72.00	-20.00	65.00
-3.00	20.00	21.00	-45.00	-69.00	-10.00	40.00
-19.00	59.00	78.00	-139.00	-39.00	14.00	23.00
-55.00	88.00	98.00	-184.00	-20.00	36.00	29.00
-58.00	103.00	133.00	-162.00	-5.00	19.00	15.00
-46.00	106.00	180.00	-70.00	19.00	16.00	26.00
-49.00	98.00	157.00	49.00	30.00	14.00	65.00
-36.00	87.00	118.00	129.00	24.00	12.00	29.00
-27.00	77.00	108.00	218.00	24.00	6.00	2.00
-36.00	70.00	151.00	197.00	31.00	-6.00	-25.00
-23.00	59.00	51.00	84.00	24.00	21.00	-37.00
0.00	47.00	-60.00	4.00	24.00	40.00	-30.00
27.00	37.00	-92.00	-97.00	22.00	30.00	-32.00
58.00	19.00	-153.00	-127.00	20.00	38.00	-18.00
75.00	4.00	-58.00	-168.00	10.00	71.00	-11.00
88.00	-4.00	64.00	-188.00	3.00	76.00	-31.00
89.00	-13.00	266.00	-150.00	-8.00	51.00	-41.00
85.00	-32.00	356.00	-85.00	4.00	46.00	-34.00
71.00	-50.00	312.00	-10.00	23.00	-74.00	-31.00
56.00	-72.00	148.00	50.00	36.00	-113.00	-22.00
28.00	-96.00	-185.00	143.00	38.00	-18.00	-10.00
27.00	-86.00	-453.00	149.00	28.00	13.00	-11.00
30.00	-78.00	-474.00	128.00	-4.00	22.00	-5.00
16.00	-64.00	-425.00	78.00	-46.00	5.00	-2.00
-5.00	-72.00	-399.00	89.00	-54.00	2.00	-1.00
2.00	-84.00	-307.00	85.00	-32.00	10.00	21.00
22.00	-62.00	-218.00	76.00	-7.00	19.00	28.00
2.00	-41.00	-177.00	72.00	0.00	18.00	25.00
2.00	-23.00	-146.00	58.00	3.00	17.00	8.00
27.00	12.00	-19.00	7.00	28.00	20.00	-15.00
12.00	54.00	143.00	-47.00	34.00	17.00	-7.00
-20.00	84.00	236.00	-86.00	35.00	18.00	17.00
-43.00	110.00	264.00	-47.00	54.00	27.00	5.00
-71.00	133.00	329.00	-44.00	52.00	20.00	-9.00
-66.00	132.00	419.00	-91.00	36.00	18.00	-3.00
-46.00	131.00	363.00	-132.00	37.00	33.00	3.00
-19.00	138.00	317.00	-145.00	48.00	40.00	-16.00
9.00	138.00	322.00	-76.00	34.00	23.00	-34.00
52.00	114.00	256.00	-41.00	20.00	16.00	28.00
101.00	75.00	64.00	-70.00	32.00	22.00	89.00
106.00	19.00	-158.00	25.00	33.00	26.00	53.00
80.00	-11.00	-268.00	98.00	6.00	45.00	2.00
70.00	-37.00	-149.00	72.00	-1.00	34.00	-4.00
43.00	-33.00	-32.00	84.00	13.00	28.00	6.00
-35.00	-24.00	-73.00	115.00	-2.00	3.00	2.00
-103.00	-73.00	-98.00	150.00	-22.00	-24.00	7.00
-119.00	-101.00	2.00	162.00	5.00	-16.00	5.00
-166.00	-95.00	-6.00	172.00	9.00	-13.00	-48.00
-173.00	-77.00	-25.00	80.00	-42.00	-39.00	-58.00
-181.00	-104.00	62.00	24.00	-72.00	-38.00	-41.00
-121.00	-98.00	110.00	-18.00	-56.00	-28.00	11.00
-62.00	-111.00	126.00	-42.00	-14.00	10.00	25.00
-4.00	-86.00	165.00	-19.00	13.00	6.00	54.00
56.00	-30.00	126.00	22.00	24.00	-1.00	22.00
97.00	47.00	-22.00	30.00	13.00	-72.00	6.00
105.00	99.00	-156.00	38.00	-5.00	-57.00	11.00
77.00	151.00	-291.00	22.00	0.00	-18.00	-9.00
41.00	173.00	-305.00	75.00	17.00	2.00	-44.00
16.00	196.00	-260.00	82.00	-5.00	5.00	-32.00
21.00	196.00	-158.00	46.00	-28.00	18.00	-4.00
15.00	168.00	-106.00	-43.00	-26.00	46.00	17.00
34.00	145.00	-44.00	-115.00	1.00	64.00	28.00
44.00	112.00	173.00	-183.00	31.00	55.00	45.00
-3.00	54.00	250.00	-254.00	30.00	21.00	60.00
-20.00	11.00	264.00	-252.00	67.00	-2.00	51.00
-16.00	-3.00	142.00	-254.00	109.00	-12.00	9.00
-3.00	-46.00	-55.00	-152.00	127.00	-6.00	-16.00
-6.00	-101.00	-237.00	-37.00	139.00	12.00	-10.00
-6.00	-108.00	-200.00	31.00	104.00	39.00	-25.00
15.00	-82.00	-61.00	94.00	84.00	63.00	-44.00
27.00	-46.00	113.00	176.00	91.00	75.00	-46.00
31.00	-7.00	136.00	83.00	87.00	109.00	-29.00
13.00	-3.00	110.00	-37.00	59.00	122.00	-6.00
1.00	2.00	65.00	48.00	49.00	71.00	-42.00
-16.00	26.00	-9.00	79.00	15.00	-79.00	-15.00
-14.00	35.00	-113.00	169.00	-22.00	-18.00	-7.00
-13.00	46.00	-104.00	292.00	-25.00	-74.00	6.00
2.00	50.00	-92.00	360.00	-21.00	-76.00	23.00
-6.00	27.00	-127.00	341.00	-35.00	4.00	12.00
-19.00	4.00	1.00	227.00	-80.00	-44.00	-16.00
-14.00	-4.00	197.00	70.00	-65.00	-137.00	-23.00
-48.00	2.00	147.00	-46.00	-48.00	-89.00	-18.00
-25.00	12.00	148.00	-117.00	-46.00	-23.00	-83.00
11.00	34.00	76.00	-139.00	-22.00	24.00	-67.00
43.00	33.00	-101.00	-135.00	7.00	41.00	-44.00
33.00	18.00	-247.00	-157.00	-5.00	25.00	-8.00
16.00	1.00	-188.00	-162.00	-28.00	21.00	5.00
6.00	-12.00	131.00	-180.00	-13.00	68.00	-3.00
-40.00	-15.00	278.00	-206.00	4.00	60.00	10.00
-35.00	-12.00	237.00	-236.00	-13.00	-18.00	79.00
-20.00	-36.00	165.00	-260.00	-21.00	-53.00	93.00
-14.00	-63.00	59.00	-128.00	5.00	-32.00	91.00
-9.00	-64.00	-120.00	75.00	20.00	-21.00	95.00
-10.00	-48.00	-281.00	241.00	24.00	10.00	93.00
15.00	-22.00	-326.00	293.00	19.00	52.00	80.00
65.00	-1.00	-306.00	318.00	16.00	46.00	63.00
82.00	16.00	-234.00	269.00	3.00	37.00	31.00
40.00	16.00	-89.00	166.00	3.00	44.00	17.00
39.00	4.00	41.00	41.00	5.00	59.00	0.00
15.00	3.00	113.00	-32.00	1.00	98.00	2.00
-5.00	15.00	256.00	-59.00	10.00	130.00	-23.00
12.00	4.00	302.00	-77.00	19.00	129.00	-38.00
24.00	-4.00	265.00	-77.00	40.00	124.00	-34.00
37.00	23.00	241.00	-107.00	36.00	82.00	-24.00
28.00	44.00	197.00	-148.00	13.00	-140.00	2.00
30.00	60.00	42.00	-82.00	-13.00	-73.00	-63.00
-1.00	39.00	-87.00	18.00	-19.00	-8.00	-59.00
-55.00	24.00	-191.00	120.00	-16.00	-76.00	-37.00
-84.00	12.00	-254.00	204.00	-13.00	-224.00	-25.00
-83.00	2.00	-265.00	164.00	7.00	-80.00	-28.00
-50.00	12.00	-129.00	74.00	29.00	-80.00	-35.00
2.00	30.00	19.00	2.00	49.00	-17.00	-43.00
51.00	38.00	147.00	-63.00	48.00	57.00	-24.00
22.00	38.00	135.00	-109.00	28.00	47.00	-21.00
-17.00	42.00	109.00	-113.00	19.00	70.00	-21.00
-68.00	42.00	16.00	-84.00	-8.00	104.00	34.00
-69.00	25.00	-25.00	-78.00	-10.00	90.00	53.00
-64.00	-1.00	33.00	-75.00	9.00	78.00	29.00
-82.00	-45.00	86.00	-81.00	30.00	47.00	20.00
-93.00	-73.00	28.00	-93.00	28.00	-90.00	10.00
-116.00	-72.00	22.00	-109.00	25.00	-152.00	5.00
-81.00	-56.00	83.00	-107.00	50.00	-37.00	27.00
-27.00	-36.00	44.00	-205.00	56.00	17.00	14.00
37.00	-3.00	16.00	-288.00	52.00	26.00	-4.00
48.00	29.00	52.00	-260.00	48.00	37.00	9.00
63.00	41.00	94.00	-169.00	2.00	36.00	1.00
83.00	60.00	282.00	-115.00	-35.00	29.00	-22.00
126.00	85.00	340.00	-16.00	-41.00	47.00	-50.00
147.00	116.00	184.00	162.00	-38.00	47.00	0.00
133.00	134.00	32.00	291.00	-8.00	60.00	11.00
128.00	123.00	-157.00	219.00	12.00	66.00	-8.00
148.00	104.00	-298.00	89.00	29.00	63.00	8.00
138.00	85.00	-346.00	118.00	50.00	56.00	45.00
73.00	69.00	-334.00	236.00	44.00	25.00	7.00
5.00	51.00	-285.00	298.00	16.00	-57.00	-11.00
2.00	27.00	-149.00	225.00	45.00	-30.00	-27.00
-32.00	10.00	-61.00	93.00	92.00	-22.00	-13.00
-44.00	13.00	89.00	-55.00	105.00	-3.00	4.00
-76.00	6.00	221.00	-147.00	88.00	26.00	18.00
-72.00	-16.00	220.00	-171.00	33.00	17.00	-1.00
-116.00	-41.00	247.00	-125.00	-8.00	-6.00	-18.00
-136.00	-46.00	228.00	-92.00	-6.00	-4.00	-4.00
-161.00	-64.00	-18.00	-4.00	0.00	7.00	14.00
-162.00	-109.00	-236.00	178.00	5.00	2.00	4.00
-146.00	-132.00	-249.00	284.00	14.00	17.00	-25.00
-136.00	-139.00	-189.00	205.00	-28.00	-1.00	-57.00
-82.00	-101.00	-85.00	74.00	-73.00	-9.00	-25.00
-42.00	-51.00	-31.00	84.00	-58.00	-13.00	41.00
6.00	-8.00	-25.00	198.00	-66.00	-91.00	67.00
50.00	38.00	20.00	174.00	-74.00	-111.00	33.00
88.00	80.00	189.00	14.00	-47.00	-55.00	55.00
103.00	101.00	260.00	-96.00	2.00	0.00	33.00
99.00	103.00	87.00	-91.00	40.00	24.00	9.00
99.00	106.00	17.00	-90.00	56.00	50.00	-12.00
85.00	75.00	0.00	-162.00	79.00	61.00	-31.00
84.00	38.00	-110.00	-104.00	99.00	64.00	-23.00
65.00	31.00	-140.00	49.00	110.00	68.00	-15.00
82.00	53.00	-193.00	104.00	33.00	34.00	-19.00
114.00	71.00	-257.00	107.00	-22.00	-5.00	-14.00
81.00	83.00	-204.00	120.00	-45.00	-18.00	-9.00
42.00	94.00	-148.00	124.00	-14.00	-2.00	-7.00
9.00	93.00	-129.00	116.00	6.00	17.00	-10.00
-31.00	81.00	-90.00	49.00	16.00	30.00	-12.00
-85.00	70.00	11.00	26.00	4.00	20.00	-11.00
-107.00	38.00	224.00	62.00	-4.00	15.00	-11.00
-109.00	8.00	350.00	115.00	1.00	26.00	-39.00
-84.00	-2.00	323.00	99.00	15.00	24.00	-39.00
-73.00	5.00	257.00	71.00	-1.00	-6.00	15.00
-30.00	-16.00	168.00	36.00	0.00	-1.00	-2.00
10.00	-47.00	31.00	-23.00	4.00	-13.00	-34.00
50.00	-55.00	-98.00	-68.00	16.00	8.00	-26.00
71.00	-53.00	-179.00	-61.00	16.00	11.00	-19.00
65.00	-47.00	-215.00	-55.00	18.00	-6.00	-1.00
62.00	-43.00	-241.00	-88.00	3.00	-2.00	41.00
49.00	-26.00	-208.00	-127.00	-6.00	15.00	144.00
57.00	-27.00	-77.00	-147.00	-4.00	41.00	90.00
32.00	-37.00	43.00	-167.00	20.00	33.00	71.00
-27.00	-20.00	105.00	-229.00	0.00	22.00	65.00
-48.00	-18.00	123.00	-258.00	-34.00	10.00	40.00
-69.00	-14.00	147.00	-259.00	-43.00	-4.00	25.00
-66.00	-9.00	39.00	-185.00	-18.00	7.00	16.00
-23.00	0.00	16.00	-104.00	2.00	18.00	-8.00
15.00	14.00	119.00	-44.00	19.00	9.00	-16.00
46.00	23.00	181.00	-77.00	37.00	-2.00	-40.00
52.00	16.00	366.00	-192.00	45.00	2.00	-56.00
19.00	-25.00	553.00	-259.00	76.00	30.00	-61.00
-7.00	-87.00	524.00	-208.00	105.00	60.00	-49.00
0.00	-99.00	383.00	-50.00	92.00	64.00	-51.00
17.00	-76.00	202.00	36.00	112.00	91.00	-48.00
34.00	-41.00	-200.00	146.00	89.00	74.00	-11.00
-1.00	-10.00	-611.00	332.00	15.00	-21.00	32.00
7.00	39.00	-665.00	471.00	13.00	-65.00	39.00
29.00	75.00	-351.00	412.00	14.00	-45.00	9.00
16.00	112.00	-103.00	305.00	0.00	-192.00	-16.00
-41.00	132.00	-55.00	227.00	3.00	-128.00	-15.00
-90.00	149.00	-131.00	163.00	11.00	-8.00	-64.00
-98.00	143.00	-134.00	10.00	-6.00	43.00	-68.00
-105.00	131.00	-194.00	-116.00	-3.00	90.00	-49.00
-113.00	121.00	-187.00	-113.00	3.00	106.00	-26.00
-68.00	93.00	-38.00	-38.00	4.00	78.00	-14.00
-33.00	80.00	79.00	32.00	10.00	58.00	-15.00
25.00	62.00	115.00	108.00	7.00	24.00	-21.00
91.00	47.00	145.00	152.00	4.00	-102.00	-3.00
136.00	-41.00	71.00	110.00	-17.00	-117.00	-13.00
158.00	-178.00	87.00	-11.00	-24.00	-18.00	-29.00
135.00	-237.00	118.00	-85.00	-23.00	23.00	-32.00
92.00	-207.00	169.00	-141.00	-19.00	29.00	-36.00
57.00	-126.00	166.00	-189.00	-18.00	68.00	-34.00
10.00	-22.00	240.00	-167.00	-30.00	65.00	-23.00
-38.00	76.00	371.00	-130.00	-22.00	67.00	105.00
-104.00	146.00	347.00	-102.00	16.00	78.00	114.00
-146.00	177.00	190.00	-67.00	26.00	21.00	65.00
-168.00	186.00	-85.00	-16.00	41.00	19.00	35.00
-172.00	184.00	-446.00	57.00	28.00	23.00	60.00
-148.00	174.00	-730.00	180.00	-4.00	19.00	92.00
-77.00	133.00	-671.00	281.00	-19.00	-27.00	53.00
-33.00	76.00	-473.00	366.00	-26.00	-42.00	35.00
16.00	34.00	-310.00	393.00	-31.00	17.00	60.00
59.00	8.00	-210.00	224.00	-16.00	41.00	25.00
75.00	-21.00	-75.00	114.00	-15.00	-70.00	5.00
60.00	-39.00	28.00	14.00	-21.00	-228.00	20.00
52.00	-35.00	163.00	-113.00	-56.00	-93.00	11.00
56.00	-36.00	236.00	-175.00	-63.00	-12.00	-10.00
24.00	-42.00	260.00	-217.00	-48.00	-15.00	-28.00
-24.00	-53.00	291.00	-246.00	6.00	6.00	-46.00
-30.00	-63.00	278.00	-216.00	57.00	37.00	-34.00
-14.00	-63.00	187.00	-146.00	99.00	70.00	-31.00
-10.00	-61.00	115.00	-110.00	131.00	74.00	-42.00
-10.00	-94.00	70.00	-87.00	100.00	53.00	-49.00
14.00	-133.00	49.00	-29.00	67.00	26.00	-44.00
71.00	-152.00	22.00	20.00	71.00	51.00	-44.00
132.00	-140.00	86.00	34.00	83.00	67.00	-43.00
165.00	-90.00	246.00	23.00	46.00	66.00	6.00
177.00	-26.00	276.00	-38.00	19.00	69.00	9.00
123.00	44.00	188.00	-43.00	12.00	73.00	-11.00
7.00	96.00	109.00	29.00	3.00	-4.00	45.00
-73.00	127.00	-28.00	152.00	-6.00	-67.00	-23.00
-135.00	154.00	-18.00	200.00	-10.00	-26.00	-27.00
-168.00	166.00	223.00	101.00	4.00	-17.00	-10.00
-146.00	165.00	262.00	10.00	27.00	10.00	0.00
-112.00	158.00	84.00	-20.00	10.00	2.00	11.00
-47.00	132.00	-222.00	-69.00	-31.00	10.00	19.00
20.00	100.00	-473.00	-115.00	-69.00	16.00	43.00
53.00	72.00	-497.00	-51.00	-120.00	8.00	45.00
64.00	44.00	-304.00	78.00	-118.00	-3.00	19.00
68.00	4.00	-123.00	160.00	-96.00	21.00	-2.00
64.00	-18.00	-23.00	152.00	-46.00	47.00	9.00
35.00	-42.00	75.00	173.00	-6.00	45.00	10.00
9.00	-87.00	104.00	110.00	31.00	23.00	2.00
-29.00	-104.00	-5.00	7.00	53.00	-1.00	-9.00
-34.00	-95.00	-29.00	-82.00	88.00	-18.00	-31.00
-18.00	-56.00	-55.00	-100.00	128.00	20.00	-66.00
-3.00	-17.00	-24.00	-98.00	174.00	48.00	-60.00
-7.00	7.00	-34.00	-28.00	178.00	32.00	-23.00
-4.00	21.00	-75.00	4.00	115.00	-11.00	15.00
15.00	31.00	-24.00	24.00	66.00	-13.00	-12.00
23.00	32.00	-34.00	60.00	56.00	3.00	-22.00
53.00	23.00	-57.00	86.00	28.00	0.00	-7.00
57.00	2.00	-61.00	46.00	18.00	4.00	20.00
94.00	-10.00	-44.00	-17.00	17.00	20.00	47.00
113.00	-7.00	-17.00	-54.00	4.00	17.00	29.00
89.00	-12.00	90.00	-117.00	-12.00	11.00	26.00
58.00	-22.00	143.00	-129.00	-38.00	7.00	-5.00
22.00	-15.00	42.00	-141.00	-60.00	-2.00	-3.00
1.00	-16.00	-4.00	-82.00	-56.00	0.00	2.00
-36.00	-14.00	64.00	-79.00	-33.00	7.00	4.00
-48.00	-18.00	-20.00	-47.00	-1.00	8.00	1.00
-31.00	-5.00	-163.00	62.00	-1.00	-20.00	-23.00
-33.00	-32.00	-202.00	157.00	-21.00	-18.00	-16.00
-11.00	-54.00	-24.00	183.00	-19.00	69.00	-8.00
26.00	-49.00	72.00	117.00	-43.00	111.00	-22.00
37.00	-47.00	127.00	78.00	-53.00	72.00	-20.00
14.00	-24.00	202.00	64.00	-28.00	58.00	-9.00
-16.00	10.00	253.00	88.00	-10.00	17.00	3.00
-49.00	5.00	224.00	-4.00	12.00	-132.00	22.00
-78.00	6.00	259.00	-129.00	29.00	-154.00	67.00
-86.00	5.00	153.00	-219.00	38.00	-62.00	38.00
-63.00	17.00	112.00	-264.00	50.00	3.00	16.00
-27.00	26.00	125.00	-273.00	36.00	21.00	19.00
-26.00	22.00	153.00	-230.00	10.00	18.00	61.00
-67.00	26.00	145.00	-171.00	6.00	11.00	30.00
-142.00	45.00	169.00	-45.00	27.00	16.00	0.00
-179.00	66.00	26.00	24.00	41.00	15.00	-24.00
-165.00	104.00	-138.00	95.00	42.00	-1.00	-40.00
-135.00	135.00	-63.00	167.00	37.00	-9.00	-60.00
-70.00	152.00	11.00	162.00	34.00	20.00	-47.00
-48.00	143.00	-246.00	54.00	39.00	38.00	-38.00
-29.00	128.00	-317.00	48.00	22.00	56.00	-61.00
-1.00	94.00	-126.00	73.00	8.00	59.00	-64.00
11.00	79.00	14.00	49.00	21.00	-11.00	-45.00
53.00	59.00	-111.00	80.00	27.00	-30.00	-24.00
85.00	13.00	-275.00	200.00	11.00	2.00	-29.00
123.00	-38.00	-321.00	321.00	1.00	62.00	-26.00
107.00	-64.00	-298.00	354.00	1.00	59.00	58.00
89.00	-60.00	-133.00	259.00	4.00	20.00	85.00
68.00	-47.00	244.00	154.00	-10.00	-123.00	69.00
59.00	-17.00	220.00	54.00	-52.00	-97.00	43.00
57.00	11.00	71.00	9.00	-80.00	-60.00	38.00
48.00	31.00	-81.00	28.00	-109.00	-30.00	40.00
70.00	48.00	-162.00	77.00	-104.00	22.00	21.00
66.00	52.00	-161.00	56.00	-92.00	29.00	38.00
70.00	52.00	-218.00	3.00	-55.00	29.00	19.00
59.00	46.00	-195.00	-52.00	-8.00	39.00	25.00
56.00	40.00	-84.00	-74.00	33.00	48.00	32.00
43.00	33.00	60.00	-92.00	67.00	52.00	25.00
47.00	30.00	170.00	-108.00	92.00	11.00	3.00
52.00	34.00	195.00	-117.00	124.00	-48.00	-40.00
62.00	23.00	128.00	-73.00	159.00	-2.00	-84.00
77.00	9.00	0.00	-25.00	155.00	32.00	-122.00
79.00	-3.00	-156.00	0.00	129.00	41.00	-112.00
81.00	-9.00	-146.00	22.00	94.00	63.00	-38.00
62.00	-12.00	-20.00	-41.00	85.00	70.00	14.00
28.00	-10.00	43.00	-131.00	49.00	62.00	11.00
-45.00	-18.00	82.00	-168.00	0.00	55.00	1.00
-152.00	-24.00	144.00	-169.00	-14.00	59.00	17.00
-197.00	-21.00	203.00	-156.00	-17.00	52.00	8.00
-191.00	-46.00	200.00	-147.00	-34.00	44.00	10.00
-179.00	-78.00	165.00	-165.00	-33.00	47.00	19.00
-157.00	-86.00	162.00	-94.00	-17.00	-16.00	35.00
-119.00	-82.00	152.00	21.00	-7.00	-16.00	25.00
-56.00	-58.00	113.00	105.00	9.00	-20.00	28.00
-6.00	-26.00	110.00	121.00	10.00	-42.00	23.00
50.00	-3.00	113.00	134.00	8.00	-36.00	10.00
78.00	0.00	126.00	157.00	-22.00	-34.00	-4.00
98.00	1.00	90.00	132.00	-41.00	-25.00	-10.00
97.00	20.00	66.00	89.00	-45.00	-4.00	-14.00
52.00	46.00	11.00	63.00	-39.00	13.00	-8.00
-1.00	69.00	-99.00	36.00	-36.00	4.00	-1.00
-88.00	66.00	-118.00	32.00	-25.00	-8.00	5.00
-64.00	39.00	-103.00	24.00	6.00	-4.00	18.00
-19.00	17.00	-24.00	12.00	16.00	8.00	19.00
17.00	10.00	87.00	-6.00	9.00	19.00	-5.00
40.00	12.00	89.00	-74.00	-7.00	9.00	7.00
32.00	25.00	-8.00	-126.00	-10.00	-5.00	-34.00
33.00	52.00	-51.00	-121.00	8.00	-1.00	-11.00
37.00	94.00	53.00	-93.00	27.00	2.00	-25.00
35.00	119.00	160.00	-122.00	47.00	-5.00	-45.00
21.00	135.00	13.00	-146.00	42.00	-41.00	-66.00
-14.00	140.00	-12.00	-142.00	31.00	2.00	-84.00
-44.00	117.00	102.00	-275.00	30.00	39.00	-96.00
-38.00	94.00	199.00	-492.00	60.00	69.00	-38.00
-52.00	77.00	110.00	-461.00	59.00	58.00	50.00
-36.00	41.00	1.00	-134.00	-11.00	32.00	99.00
-51.00	-8.00	-164.00	188.00	-39.00	45.00	45.00
-49.00	-45.00	-291.00	291.00	-7.00	76.00	29.00
-41.00	-58.00	-356.00	426.00	5.00	86.00	39.00
-19.00	-90.00	-513.00	610.00	27.00	87.00	36.00
-15.00	-114.00	-537.00	536.00	50.00	113.00	37.00
-24.00	-104.00	-408.00	457.00	34.00	62.00	33.00
-14.00	-80.00	-247.00	435.00	33.00	-166.00	10.00
-4.00	-36.00	-52.00	274.00	49.00	-232.00	-3.00
37.00	-4.00	99.00	140.00	55.00	-90.00	-8.00
77.00	7.00	110.00	77.00	47.00	19.00	-8.00
79.00	17.00	50.00	-11.00	20.00	94.00	-2.00
22.00	14.00	35.00	-61.00	2.00	105.00	4.00
-13.00	12.00	46.00	-124.00	-4.00	-31.00	-1.00
-70.00	31.00	172.00	-131.00	-13.00	-19.00	-32.00
-123.00	9.00	192.00	-92.00	-4.00	-12.00	-63.00
-122.00	-26.00	121.00	-8.00	6.00	-204.00	-73.00
-87.00	-50.00	33.00	91.00	9.00	-127.00	-76.00
-38.00	-55.00	-72.00	75.00	4.00	-12.00	-40.00
-15.00	-45.00	-160.00	-12.00	-3.00	6.00	8.00
35.00	-16.00	-140.00	-93.00	9.00	17.00	37.00
64.00	18.00	26.00	-182.00	17.00	38.00	49.00
69.00	52.00	243.00	-200.00	14.00	27.00	56.00
60.00	83.00	390.00	-166.00	0.00	-49.00	28.00
57.00	98.00	471.00	-126.00	-6.00	12.00	50.00
64.00	99.00	405.00	-68.00	-27.00	59.00	41.00
50.00	95.00	371.00	-11.00	-47.00	79.00	17.00
27.00	79.00	407.00	1.00	-33.00	71.00	11.00
52.00	53.00	282.00	24.00	-18.00	57.00	17.00
80.00	52.00	141.00	-3.00	11.00	63.00	5.00
129.00	19.00	20.00	-8.00	51.00	74.00	-24.00
155.00	-37.00	-25.00	-37.00	79.00	63.00	-12.00
139.00	-48.00	-175.00	-54.00	72.00	38.00	5.00
59.00	-42.00	-326.00	-74.00	64.00	34.00	-19.00
-13.00	-17.00	-317.00	-89.00	46.00	29.00	-37.00
-48.00	9.00	-355.00	-104.00	25.00	-17.00	-19.00
-60.00	29.00	-337.00	-49.00	42.00	-18.00	2.00
-81.00	49.00	-291.00	-78.00	42.00	-2.00	1.00
-61.00	66.00	-311.00	-113.00	25.00	5.00	-6.00
-41.00	74.00	-149.00	-46.00	0.00	13.00	-13.00
1.00	60.00	57.00	-5.00	5.00	13.00	-11.00
67.00	42.00	339.00	-4.00	0.00	22.00	-18.00
103.00	11.00	373.00	36.00	-15.00	24.00	-6.00
130.00	-5.00	245.00	80.00	-16.00	19.00	-9.00
89.00	-9.00	105.00	126.00	-30.00	4.00	-41.00
27.00	5.00	-131.00	166.00	-24.00	33.00	-39.00
0.00	27.00	-351.00	217.00	-23.00	66.00	-15.00
24.00	19.00	-475.00	233.00	-53.00	73.00	-8.00
56.00	3.00	-432.00	219.00	-70.00	22.00	-14.00
74.00	-28.00	-341.00	234.00	-96.00	-94.00	22.00
84.00	-59.00	-119.00	181.00	-95.00	-104.00	35.00
65.00	-83.00	33.00	81.00	-27.00	-24.00	24.00
21.00	-84.00	82.00	-4.00	16.00	-2.00	9.00
-24.00	-51.00	145.00	-93.00	33.00	-10.00	-10.00
-64.00	-29.00	123.00	-144.00	57.00	-9.00	-38.00
-82.00	-11.00	171.00	-177.00	98.00	-2.00	-25.00
-110.00	19.00	461.00	-345.00	123.00	12.00	23.00
-178.00	29.00	707.00	-481.00	118.00	24.00	56.00
-210.00	36.00	599.00	-426.00	91.00	22.00	29.00
-223.00	35.00	474.00	-232.00	47.00	15.00	66.00
-167.00	47.00	271.00	-48.00	41.00	12.00	67.00
-67.00	64.00	62.00	157.00	51.00	15.00	77.00
-28.00	41.00	-167.00	341.00	69.00	29.00	32.00
-11.00	31.00	-345.00	409.00	89.00	31.00	-12.00
6.00	20.00	-579.00	381.00	71.00	-1.00	-49.00
-26.00	23.00	-558.00	200.00	27.00	12.00	-55.00
-24.00	16.00	-337.00	93.00	8.00	5.00	-51.00
4.00	13.00	-227.00	82.00	-11.00	-14.00	-37.00
14.00	16.00	-174.00	47.00	-2.00	18.00	-20.00
53.00	10.00	-50.00	23.00	-12.00	35.00	-7.00
85.00	14.00	66.00	-22.00	-14.00	59.00	1.00
83.00	27.00	40.00	-71.00	-19.00	114.00	-22.00
62.00	35.00	46.00	-102.00	-30.00	122.00	-48.00
27.00	46.00	97.00	-145.00	-14.00	-37.00	-29.00
10.00	32.00	123.00	-165.00	5.00	-14.00	-5.00
11.00	7.00	239.00	-141.00	10.00	-71.00	12.00
42.00	-59.00	284.00	-114.00	7.00	-110.00	-2.00
49.00	-117.00	303.00	-223.00	12.00	-31.00	-15.00
48.00	-118.00	227.00	-320.00	4.00	-67.00	-14.00
37.00	-83.00	28.00	-317.00	-1.00	-56.00	6.00
-4.00	-24.00	-114.00	-233.00	-6.00	-1.00	22.00
-39.00	38.00	-278.00	-112.00	6.00	31.00	26.00
-47.00	86.00	-258.00	55.00	8.00	46.00	13.00
-5.00	120.00	-146.00	248.00	13.00	68.00	-18.00
16.00	140.00	-33.00	453.00	16.00	81.00	-56.00
37.00	143.00	-65.00	477.00	3.00	36.00	-82.00
7.00	122.00	-189.00	377.00	-29.00	-57.00	-85.00
