
-27.00	-3.00	63.00	31.00	-5.00	10.00	-60.00
-25.00	2.00	27.00	33.00	0.00	11.00	-91.00
-16.00	46.00	12.00	23.00	4.00	10.00	-130.00
8.00	56.00	25.00	33.00	6.00	13.00	-119.00
-5.00	49.00	38.00	34.00	10.00	10.00	-79.00
7.00	45.00	38.00	26.00	12.00	8.00	-28.00
-1.00	27.00	16.00	26.00	19.00	9.00	-1.00
0.00	26.00	-4.00	28.00	23.00	6.00	8.00
12.00	21.00	-8.00	24.00	29.00	4.00	15.00
6.00	-7.00	-18.00	10.00	31.00	2.00	-1.00
-5.00	7.00	-30.00	11.00	32.00	-7.00	-19.00
-1.00	15.00	-14.00	0.00	33.00	-11.00	-21.00
9.00	25.00	68.00	-26.00	35.00	-9.00	-19.00
9.00	32.00	129.00	-29.00	28.00	-12.00	-3.00
-12.00	33.00	182.00	-5.00	13.00	-15.00	7.00
8.00	23.00	242.00	-8.00	-19.00	-14.00	-2.00
18.00	7.00	145.00	-17.00	-11.00	-10.00	-15.00
14.00	13.00	12.00	0.00	6.00	-5.00	-18.00
17.00	12.00	-123.00	8.00	-4.00	-3.00	-31.00
8.00	16.00	-167.00	-31.00	-11.00	4.00	-36.00
-4.00	23.00	-117.00	-74.00	-2.00	16.00	-32.00
9.00	18.00	-132.00	-71.00	14.00	19.00	-18.00
-9.00	11.00	-62.00	-61.00	27.00	18.00	-7.00
-17.00	3.00	-37.00	-58.00	39.00	18.00	1.00
-11.00	-11.00	-130.00	-20.00	51.00	22.00	21.00
-12.00	-17.00	-177.00	15.00	53.00	22.00	26.00
6.00	-9.00	-127.00	37.00	60.00	21.00	24.00
16.00	-11.00	-52.00	50.00	53.00	20.00	24.00
28.00	-7.00	-16.00	54.00	46.00	14.00	35.00
13.00	-31.00	-56.00	65.00	40.00	5.00	27.00
34.00	-36.00	-77.00	58.00	38.00	3.00	20.00
23.00	4.00	-7.00	40.00	39.00	-1.00	20.00
12.00	20.00	58.00	15.00	23.00	-3.00	9.00
-8.00	48.00	78.00	3.00	5.00	-4.00	-10.00
-5.00	83.00	77.00	3.00	-4.00	-1.00	-34.00
-36.00	111.00	69.00	20.00	-9.00	1.00	-19.00
-12.00	166.00	87.00	20.00	-11.00	5.00	29.00
-11.00	206.00	78.00	44.00	-13.00	6.00	58.00
-15.00	154.00	55.00	40.00	-17.00	8.00	84.00
-29.00	73.00	-8.00	43.00	-22.00	7.00	98.00
-42.00	-17.00	-23.00	23.00	-23.00	15.00	104.00
-36.00	-92.00	-11.00	12.00	-21.00	22.00	91.00
-40.00	-134.00	9.00	15.00	-14.00	19.00	79.00
-38.00	-144.00	-11.00	11.00	-15.00	16.00	61.00
-32.00	-137.00	-8.00	-18.00	-14.00	13.00	49.00
-40.00	-137.00	65.00	-62.00	-13.00	13.00	45.00
-26.00	-140.00	196.00	-91.00	-8.00	17.00	39.00
-32.00	-104.00	165.00	-86.00	-1.00	16.00	18.00
-31.00	-46.00	135.00	-57.00	6.00	12.00	8.00
-24.00	0.00	105.00	-27.00	6.00	9.00	0.00
-11.00	31.00	56.00	11.00	9.00	8.00	-5.00
22.00	47.00	46.00	19.00	6.00	8.00	30.00
25.00	54.00	-12.00	50.00	-4.00	9.00	45.00
8.00	62.00	-50.00	60.00	-3.00	5.00	42.00
16.00	58.00	-82.00	66.00	0.00	2.00	23.00
2.00	65.00	-167.00	68.00	3.00	10.00	-1.00
29.00	99.00	-226.00	41.00	4.00	10.00	-15.00
16.00	121.00	-266.00	15.00	1.00	12.00	-38.00
17.00	140.00	-269.00	17.00	-4.00	19.00	-83.00
29.00	134.00	-138.00	14.00	8.00	23.00	-93.00
40.00	87.00	57.00	-20.00	17.00	17.00	-88.00
55.00	30.00	131.00	-20.00	9.00	8.00	-60.00
64.00	-1.00	124.00	4.00	15.00	4.00	-49.00
65.00	-29.00	83.00	15.00	23.00	-3.00	-40.00
54.00	-46.00	66.00	18.00	26.00	-2.00	-33.00
37.00	-65.00	36.00	28.00	27.00	-2.00	-36.00
17.00	-62.00	-17.00	40.00	28.00	1.00	-44.00
1.00	-47.00	-28.00	27.00	24.00	-1.00	-66.00
-13.00	3.00	35.00	2.00	18.00	-2.00	-73.00
-32.00	57.00	64.00	-17.00	12.00	1.00	-59.00
-38.00	71.00	21.00	-15.00	11.00	7.00	-37.00
-31.00	57.00	24.00	-9.00	13.00	14.00	-26.00
-46.00	8.00	21.00	-11.00	16.00	14.00	-34.00
-31.00	-27.00	81.00	0.00	0.00	7.00	-32.00
-21.00	-51.00	186.00	15.00	-6.00	3.00	-30.00
-17.00	-37.00	234.00	41.00	-1.00	0.00	-46.00
-6.00	9.00	146.00	40.00	6.00	2.00	-45.00
9.00	75.00	55.00	10.00	16.00	4.00	-14.00
22.00	88.00	-100.00	-6.00	25.00	7.00	15.00
6.00	63.00	-160.00	4.00	36.00	14.00	51.00
32.00	29.00	-173.00	15.00	33.00	22.00	63.00
14.00	-12.00	-195.00	27.00	22.00	22.00	46.00
6.00	-45.00	-143.00	17.00	21.00	21.00	45.00
10.00	-69.00	-62.00	-6.00	25.00	23.00	50.00
-2.00	-70.00	-14.00	-32.00	29.00	23.00	63.00
-4.00	-78.00	-34.00	-13.00	26.00	20.00	75.00
-4.00	-72.00	-11.00	13.00	13.00	15.00	73.00
-5.00	-71.00	-6.00	18.00	22.00	13.00	67.00
-7.00	-64.00	-10.00	29.00	7.00	4.00	45.00
-22.00	-40.00	45.00	34.00	-12.00	-5.00	34.00
-13.00	12.00	125.00	42.00	-24.00	-9.00	40.00
-14.00	49.00	209.00	25.00	-34.00	-6.00	59.00
-22.00	46.00	179.00	7.00	-26.00	0.00	68.00
-29.00	35.00	120.00	-22.00	-9.00	4.00	74.00
-5.00	39.00	48.00	-55.00	-1.00	3.00	61.00
31.00	47.00	-12.00	-78.00	20.00	10.00	31.00
15.00	41.00	-79.00	-72.00	25.00	9.00	3.00
21.00	36.00	-149.00	-30.00	33.00	7.00	-11.00
18.00	51.00	-185.00	-36.00	47.00	13.00	-20.00
13.00	74.00	-116.00	-44.00	45.00	13.00	-26.00
14.00	87.00	-52.00	-41.00	33.00	11.00	-21.00
-2.00	84.00	-9.00	-24.00	34.00	12.00	-22.00
-14.00	117.00	73.00	4.00	33.00	10.00	-37.00
-4.00	133.00	126.00	51.00	30.00	11.00	-62.00
12.00	124.00	96.00	58.00	23.00	12.00	-62.00
29.00	91.00	49.00	59.00	11.00	10.00	-57.00
41.00	58.00	41.00	66.00	-19.00	11.00	-38.00
57.00	12.00	-18.00	68.00	-14.00	15.00	-16.00
76.00	-22.00	-50.00	60.00	-6.00	16.00	-41.00
75.00	-53.00	-31.00	25.00	1.00	15.00	-48.00
70.00	-73.00	-70.00	0.00	10.00	17.00	-62.00
44.00	-81.00	-107.00	1.00	14.00	19.00	-66.00
-2.00	-94.00	-115.00	4.00	14.00	19.00	-58.00
-43.00	-99.00	-100.00	23.00	14.00	19.00	-35.00
-63.00	-66.00	-62.00	32.00	10.00	18.00	-28.00
-74.00	-10.00	-52.00	35.00	-7.00	19.00	-26.00
-98.00	18.00	-43.00	31.00	-11.00	18.00	-3.00
-94.00	24.00	-55.00	40.00	-8.00	14.00	1.00
-88.00	26.00	33.00	22.00	1.00	13.00	-8.00
-77.00	18.00	105.00	1.00	20.00	10.00	-44.00
-65.00	13.00	143.00	-6.00	24.00	3.00	-44.00
-33.00	6.00	153.00	20.00	21.00	0.00	-43.00
-9.00	16.00	104.00	25.00	23.00	-3.00	-32.00
2.00	45.00	12.00	25.00	23.00	-5.00	-15.00
-2.00	64.00	-41.00	30.00	21.00	-5.00	-18.00
-8.00	71.00	-42.00	14.00	26.00	-1.00	9.00
-14.00	58.00	-77.00	-14.00	23.00	3.00	15.00
-22.00	36.00	-90.00	-50.00	26.00	7.00	13.00
-10.00	29.00	-65.00	-57.00	26.00	4.00	11.00
9.00	54.00	-57.00	-40.00	30.00	-2.00	23.00
41.00	53.00	-37.00	-37.00	27.00	-11.00	42.00
47.00	43.00	42.00	-13.00	24.00	-9.00	60.00
60.00	30.00	63.00	7.00	25.00	1.00	72.00
58.00	6.00	22.00	6.00	26.00	14.00	73.00
70.00	3.00	13.00	1.00	27.00	24.00	63.00
42.00	14.00	26.00	7.00	25.00	24.00	45.00
23.00	-29.00	144.00	-3.00	12.00	18.00	23.00
5.00	-27.00	194.00	-30.00	-2.00	11.00	16.00
-13.00	-11.00	192.00	-51.00	-9.00	6.00	12.00
-58.00	-7.00	156.00	-43.00	-14.00	0.00	15.00
-89.00	-12.00	124.00	-28.00	-15.00	-3.00	12.00
-88.00	-17.00	82.00	0.00	-37.00	0.00	11.00
-81.00	-4.00	19.00	15.00	-44.00	2.00	5.00
-73.00	-21.00	-46.00	9.00	-40.00	1.00	-19.00
-54.00	-43.00	-55.00	35.00	-34.00	-5.00	-24.00
-31.00	-38.00	-90.00	23.00	-27.00	-5.00	-16.00
2.00	-37.00	-80.00	20.00	-6.00	0.00	-11.00
10.00	-22.00	-107.00	19.00	18.00	6.00	-18.00
22.00	0.00	-95.00	33.00	23.00	0.00	-39.00
21.00	40.00	-85.00	20.00	32.00	-3.00	-51.00
14.00	56.00	-52.00	-10.00	37.00	-3.00	-48.00
28.00	64.00	-56.00	-11.00	43.00	4.00	-38.00
38.00	74.00	-107.00	-13.00	68.00	16.00	-38.00
26.00	64.00	-112.00	22.00	85.00	24.00	-44.00
24.00	26.00	-141.00	49.00	72.00	23.00	-55.00
24.00	-5.00	-90.00	68.00	60.00	27.00	-52.00
8.00	-28.00	15.00	59.00	44.00	18.00	-49.00
9.00	-28.00	86.00	57.00	33.00	15.00	-32.00
-2.00	-28.00	120.00	90.00	24.00	22.00	-15.00
-1.00	-18.00	158.00	104.00	11.00	23.00	5.00
5.00	1.00	122.00	90.00	24.00	14.00	30.00
6.00	13.00	17.00	94.00	15.00	4.00	46.00
8.00	25.00	-68.00	51.00	4.00	-9.00	41.00
10.00	38.00	16.00	-36.00	-10.00	-16.00	39.00
3.00	65.00	91.00	-77.00	-13.00	-10.00	41.00
29.00	83.00	112.00	-104.00	-24.00	-9.00	40.00
20.00	91.00	104.00	-121.00	-25.00	-4.00	49.00
30.00	97.00	84.00	-107.00	-25.00	-8.00	27.00
30.00	81.00	69.00	-111.00	-26.00	-6.00	-7.00
14.00	47.00	13.00	-79.00	-24.00	4.00	-32.00
18.00	50.00	-57.00	-23.00	-13.00	13.00	-40.00
17.00	53.00	-42.00	17.00	-7.00	19.00	-26.00
34.00	52.00	-76.00	61.00	3.00	29.00	5.00
28.00	49.00	-145.00	87.00	14.00	38.00	7.00
18.00	34.00	-74.00	85.00	24.00	45.00	2.00
5.00	11.00	-58.00	68.00	29.00	47.00	-1.00
-3.00	-8.00	-97.00	52.00	27.00	41.00	-2.00
-18.00	-23.00	-73.00	35.00	16.00	30.00	-11.00
-23.00	-31.00	-53.00	34.00	6.00	22.00	-42.00
-20.00	-53.00	-81.00	31.00	5.00	20.00	-42.00
-41.00	-56.00	-92.00	23.00	6.00	20.00	-12.00
-38.00	-61.00	-70.00	27.00	3.00	12.00	12.00
-27.00	-43.00	-14.00	15.00	-2.00	3.00	27.00
-29.00	-2.00	74.00	-5.00	-16.00	-5.00	21.00
-7.00	18.00	217.00	-20.00	-30.00	-12.00	0.00
-19.00	13.00	428.00	-39.00	-38.00	-17.00	-16.00
-17.00	18.00	406.00	-38.00	-30.00	-23.00	8.00
-4.00	17.00	285.00	-10.00	-23.00	-20.00	45.00
-6.00	24.00	65.00	41.00	-7.00	-16.00	46.00
-14.00	24.00	-193.00	44.00	6.00	-12.00	36.00
-33.00	3.00	-360.00	0.00	11.00	-1.00	7.00
-29.00	-21.00	-394.00	-52.00	24.00	20.00	-22.00
-43.00	-23.00	-404.00	-80.00	59.00	29.00	-18.00
-47.00	-38.00	-197.00	-70.00	77.00	26.00	-11.00
-47.00	-44.00	80.00	-6.00	73.00	19.00	-5.00
-34.00	-22.00	164.00	55.00	45.00	12.00	6.00
-39.00	-3.00	90.00	50.00	6.00	1.00	24.00
-15.00	-3.00	103.00	27.00	29.00	-4.00	21.00
20.00	-5.00	85.00	25.00	61.00	-9.00	21.00
33.00	13.00	46.00	32.00	64.00	-8.00	22.00
35.00	26.00	10.00	38.00	60.00	-9.00	33.00
33.00	48.00	42.00	25.00	35.00	-8.00	7.00
16.00	56.00	21.00	10.00	11.00	-3.00	9.00
32.00	57.00	12.00	-34.00	-7.00	-2.00	9.00
25.00	63.00	92.00	-78.00	-8.00	-3.00	1.00
8.00	72.00	115.00	-46.00	5.00	7.00	-7.00
-6.00	60.00	93.00	21.00	14.00	5.00	-5.00
-8.00	37.00	23.00	25.00	19.00	3.00	3.00
-11.00	4.00	-59.00	13.00	19.00	3.00	13.00
-1.00	-33.00	-104.00	20.00	19.00	7.00	25.00
16.00	-24.00	-97.00	18.00	20.00	7.00	30.00
31.00	-22.00	-89.00	33.00	25.00	10.00	40.00
37.00	-26.00	-69.00	31.00	29.00	6.00	55.00
58.00	-18.00	21.00	46.00	26.00	5.00	56.00
102.00	-35.00	60.00	115.00	20.00	4.00	53.00
99.00	-38.00	99.00	69.00	16.00	9.00	31.00
108.00	-18.00	86.00	10.00	18.00	20.00	-6.00
92.00	1.00	74.00	3.00	3.00	15.00	-51.00
83.00	47.00	101.00	-13.00	-7.00	12.00	-79.00
80.00	85.00	68.00	-13.00	-16.00	5.00	-78.00
46.00	105.00	8.00	-11.00	-22.00	7.00	-71.00
27.00	78.00	100.00	-20.00	-9.00	18.00	-56.00
38.00	51.00	143.00	-23.00	0.00	21.00	-39.00
2.00	61.00	199.00	-84.00	-14.00	11.00	-30.00
1.00	63.00	275.00	-153.00	-37.00	5.00	-3.00
-25.00	40.00	222.00	-126.00	-33.00	5.00	21.00
-44.00	21.00	7.00	-39.00	-20.00	8.00	23.00
-45.00	23.00	-234.00	43.00	3.00	14.00	14.00
-63.00	95.00	-348.00	67.00	11.00	18.00	-39.00
-64.00	152.00	-414.00	60.00	28.00	30.00	-37.00
-86.00	121.00	-431.00	74.00	36.00	35.00	-24.00
-83.00	45.00	-415.00	67.00	36.00	38.00	2.00
-98.00	-39.00	-341.00	32.00	39.00	36.00	1.00
-98.00	-105.00	-238.00	-35.00	46.00	31.00	32.00
-73.00	-143.00	-11.00	-59.00	51.00	26.00	82.00
-55.00	-158.00	187.00	-62.00	32.00	15.00	76.00
-42.00	-157.00	188.00	-40.00	26.00	3.00	38.00
-30.00	-162.00	88.00	16.00	32.00	7.00	13.00
23.00	-165.00	-13.00	52.00	33.00	7.00	-18.00
35.00	-121.00	-71.00	77.00	32.00	7.00	-41.00
52.00	-65.00	-8.00	61.00	23.00	8.00	-53.00
26.00	-22.00	7.00	26.00	9.00	3.00	-46.00
35.00	10.00	-5.00	29.00	-1.00	6.00	-43.00
20.00	50.00	106.00	39.00	-5.00	3.00	-31.00
7.00	53.00	228.00	45.00	-10.00	7.00	-39.00
-11.00	52.00	272.00	31.00	-17.00	1.00	-72.00
-26.00	42.00	279.00	19.00	-29.00	-7.00	-104.00
-20.00	59.00	142.00	47.00	-35.00	-9.00	-109.00
-21.00	68.00	11.00	37.00	-38.00	-5.00	-61.00
-17.00	79.00	-74.00	12.00	-28.00	-2.00	-2.00
-9.00	101.00	-145.00	22.00	-10.00	4.00	23.00
-6.00	103.00	-140.00	9.00	4.00	12.00	59.00
-15.00	90.00	-78.00	-20.00	21.00	19.00	105.00
1.00	118.00	111.00	-68.00	20.00	7.00	160.00
6.00	135.00	189.00	-68.00	0.00	-3.00	165.00
27.00	117.00	158.00	-71.00	-4.00	-7.00	130.00
13.00	78.00	114.00	-100.00	4.00	-2.00	99.00
16.00	35.00	49.00	-49.00	21.00	11.00	63.00
11.00	0.00	-54.00	17.00	44.00	28.00	33.00
6.00	-39.00	-97.00	32.00	62.00	40.00	15.00
1.00	-50.00	-143.00	35.00	40.00	33.00	9.00
7.00	-37.00	-209.00	51.00	11.00	25.00	-7.00
0.00	-33.00	-185.00	58.00	24.00	23.00	-41.00
-25.00	-34.00	-153.00	68.00	24.00	19.00	-64.00
1.00	-42.00	-49.00	56.00	16.00	14.00	-106.00
-23.00	-18.00	55.00	31.00	12.00	13.00	-111.00
-5.00	3.00	132.00	3.00	12.00	11.00	-109.00
-8.00	21.00	197.00	-2.00	7.00	3.00	-84.00
1.00	22.00	300.00	15.00	6.00	-4.00	-72.00
3.00	-3.00	322.00	5.00	2.00	-8.00	-62.00
14.00	34.00	286.00	-20.00	6.00	-4.00	-52.00
20.00	95.00	153.00	-6.00	4.00	-1.00	-36.00
24.00	106.00	32.00	17.00	8.00	2.00	-13.00
27.00	106.00	-149.00	27.00	20.00	3.00	-1.00
39.00	85.00	-340.00	1.00	25.00	5.00	7.00
26.00	27.00	-336.00	-25.00	-2.00	7.00	6.00
21.00	-3.00	-142.00	-37.00	4.00	0.00	9.00
5.00	-11.00	36.00	-14.00	16.00	3.00	0.00
11.00	-28.00	68.00	18.00	15.00	3.00	-1.00
11.00	-27.00	-44.00	57.00	12.00	3.00	-4.00
-2.00	18.00	-143.00	36.00	7.00	8.00	-7.00
-22.00	74.00	-241.00	-15.00	12.00	16.00	2.00
-36.00	82.00	-213.00	21.00	28.00	24.00	9.00
-81.00	64.00	-69.00	54.00	33.00	26.00	29.00
-67.00	37.00	209.00	8.00	37.00	29.00	40.00
-57.00	1.00	319.00	-23.00	23.00	23.00	40.00
-56.00	-38.00	329.00	-48.00	-3.00	15.00	33.00
-25.00	-61.00	218.00	-46.00	-19.00	15.00	26.00
-4.00	-65.00	104.00	4.00	-21.00	15.00	27.00
16.00	-43.00	4.00	35.00	-16.00	12.00	28.00
52.00	-56.00	-152.00	52.00	-10.00	5.00	23.00
41.00	-60.00	-225.00	53.00	3.00	4.00	12.00
21.00	-57.00	-239.00	56.00	16.00	10.00	9.00
2.00	-27.00	-280.00	62.00	21.00	14.00	23.00
-22.00	2.00	-250.00	41.00	38.00	20.00	23.00
-31.00	41.00	-147.00	28.00	39.00	24.00	12.00
-42.00	61.00	-20.00	16.00	30.00	18.00	0.00
-35.00	75.00	120.00	-29.00	25.00	0.00	-27.00
-33.00	57.00	144.00	-29.00	20.00	-9.00	-15.00
-33.00	41.00	107.00	-19.00	12.00	-5.00	-19.00
19.00	17.00	128.00	-15.00	1.00	-7.00	-24.00
14.00	6.00	155.00	-16.00	-13.00	-12.00	-5.00
6.00	-5.00	40.00	-37.00	-27.00	-18.00	3.00
-13.00	4.00	-50.00	-30.00	-30.00	-8.00	6.00
-10.00	11.00	-52.00	-16.00	-72.00	-6.00	8.00
-19.00	14.00	-28.00	-75.00	-92.00	-7.00	7.00
-29.00	11.00	-25.00	-88.00	-75.00	-3.00	28.00
-17.00	15.00	-35.00	-71.00	-35.00	11.00	36.00
-26.00	32.00	19.00	-31.00	0.00	15.00	13.00
-30.00	30.00	42.00	-12.00	39.00	19.00	-9.00
-38.00	22.00	100.00	-11.00	56.00	18.00	-23.00
-32.00	23.00	112.00	-12.00	90.00	15.00	-18.00
-15.00	27.00	164.00	-2.00	105.00	11.00	-12.00
4.00	51.00	128.00	51.00	112.00	11.00	-19.00
19.00	58.00	140.00	133.00	114.00	15.00	-39.00
26.00	63.00	265.00	162.00	88.00	5.00	-59.00
45.00	41.00	404.00	155.00	46.00	-9.00	-54.00
55.00	3.00	402.00	119.00	16.00	-15.00	-52.00
82.00	-27.00	263.00	68.00	-12.00	-14.00	-64.00
97.00	6.00	10.00	46.00	-15.00	-13.00	-51.00
102.00	71.00	-172.00	6.00	-19.00	-16.00	-38.00
87.00	101.00	-243.00	-34.00	-19.00	-4.00	-45.00
47.00	72.00	-368.00	-47.00	-7.00	17.00	-31.00
21.00	35.00	-397.00	-32.00	15.00	35.00	24.00
3.00	-4.00	-334.00	-47.00	7.00	34.00	70.00
-10.00	-46.00	-104.00	-62.00	-5.00	22.00	95.00
-19.00	-73.00	99.00	-118.00	-6.00	18.00	101.00
-13.00	-124.00	189.00	-169.00	2.00	13.00	86.00
-35.00	-152.00	218.00	-117.00	5.00	6.00	37.00
2.00	-132.00	229.00	-47.00	-7.00	4.00	-1.00
1.00	-95.00	34.00	16.00	-23.00	-3.00	-33.00
-1.00	-49.00	-233.00	94.00	-31.00	-3.00	-49.00
-3.00	-15.00	-437.00	139.00	-22.00	6.00	-22.00
16.00	5.00	-543.00	160.00	-27.00	17.00	0.00
-3.00	33.00	-421.00	123.00	-22.00	25.00	-6.00
-8.00	78.00	-242.00	65.00	12.00	42.00	2.00
-26.00	98.00	-150.00	7.00	51.00	52.00	16.00
-43.00	92.00	-69.00	-6.00	55.00	43.00	9.00
-38.00	69.00	-20.00	57.00	49.00	32.00	11.00
-33.00	42.00	115.00	60.00	36.00	21.00	19.00
-26.00	1.00	158.00	-17.00	12.00	18.00	-3.00
-20.00	-22.00	174.00	-23.00	-16.00	6.00	-28.00
-21.00	-37.00	143.00	-28.00	-5.00	-2.00	-30.00
-43.00	-45.00	88.00	-79.00	17.00	2.00	-25.00
1.00	-51.00	25.00	-61.00	33.00	5.00	-37.00
-16.00	-15.00	26.00	-6.00	35.00	1.00	-41.00
-26.00	25.00	60.00	-21.00	31.00	-5.00	-30.00
-12.00	68.00	165.00	-48.00	29.00	-8.00	-16.00
20.00	63.00	351.00	-12.00	32.00	-8.00	8.00
30.00	40.00	325.00	25.00	33.00	-8.00	-10.00
55.00	56.00	246.00	35.00	18.00	-12.00	-21.00
71.00	68.00	141.00	27.00	0.00	-11.00	-15.00
87.00	45.00	48.00	31.00	-15.00	-5.00	-7.00
77.00	6.00	-106.00	36.00	-23.00	-3.00	-8.00
59.00	-27.00	-219.00	31.00	-24.00	0.00	-3.00
43.00	-22.00	-340.00	39.00	-1.00	8.00	12.00
12.00	-22.00	-309.00	51.00	17.00	16.00	27.00
4.00	-9.00	42.00	30.00	15.00	12.00	36.00
-36.00	5.00	432.00	-57.00	0.00	5.00	39.00
-58.00	20.00	465.00	-65.00	-4.00	0.00	42.00
-75.00	38.00	315.00	11.00	-7.00	-5.00	50.00
-63.00	77.00	206.00	14.00	-12.00	-13.00	51.00
-65.00	108.00	-5.00	34.00	-15.00	-6.00	47.00
-40.00	160.00	-236.00	-4.00	13.00	5.00	40.00
-24.00	127.00	-482.00	-63.00	40.00	18.00	52.00
-33.00	102.00	-542.00	-31.00	41.00	22.00	73.00
-3.00	103.00	-428.00	25.00	44.00	18.00	69.00
22.00	80.00	-203.00	78.00	54.00	24.00	56.00
37.00	34.00	-162.00	71.00	65.00	31.00	35.00
34.00	-36.00	-49.00	21.00	82.00	40.00	-26.00
34.00	-96.00	110.00	4.00	93.00	50.00	-39.00
11.00	-120.00	176.00	5.00	63.00	35.00	-43.00
-7.00	-117.00	173.00	-27.00	34.00	19.00	-68.00
-4.00	-100.00	193.00	-91.00	19.00	3.00	-41.00
-1.00	-98.00	221.00	-72.00	1.00	-6.00	-22.00
-9.00	-72.00	178.00	-45.00	-8.00	-2.00	12.00
-7.00	-28.00	71.00	-9.00	-9.00	3.00	20.00
-7.00	8.00	-59.00	53.00	-9.00	3.00	-2.00
-29.00	20.00	-101.00	57.00	-13.00	5.00	-19.00
-62.00	27.00	-77.00	56.00	-12.00	6.00	-9.00
-76.00	36.00	-102.00	74.00	-12.00	10.00	3.00
-91.00	44.00	-194.00	43.00	-5.00	14.00	-4.00
-103.00	51.00	-116.00	17.00	-3.00	12.00	-24.00
-98.00	48.00	37.00	-3.00	-13.00	7.00	-34.00
-79.00	54.00	80.00	-36.00	-30.00	6.00	-20.00
-51.00	68.00	43.00	-19.00	-53.00	11.00	-25.00
-62.00	93.00	88.00	10.00	-37.00	14.00	-29.00
-20.00	104.00	59.00	44.00	-21.00	12.00	-41.00
24.00	90.00	4.00	78.00	-11.00	11.00	-41.00
46.00	103.00	74.00	62.00	-3.00	9.00	-25.00
69.00	69.00	113.00	7.00	-7.00	10.00	-2.00
99.00	29.00	120.00	-46.00	-4.00	4.00	18.00
124.00	-6.00	199.00	-36.00	-8.00	-7.00	20.00
131.00	-52.00	171.00	-23.00	-1.00	-8.00	15.00
115.00	-70.00	71.00	-28.00	31.00	4.00	-4.00
89.00	-86.00	-15.00	-50.00	43.00	4.00	6.00
60.00	-76.00	69.00	9.00	50.00	1.00	23.00
24.00	-69.00	252.00	82.00	54.00	-7.00	40.00
-14.00	-63.00	175.00	106.00	38.00	-5.00	66.00
-35.00	-32.00	80.00	101.00	38.00	0.00	68.00
-69.00	24.00	-16.00	83.00	46.00	5.00	58.00
-33.00	73.00	-107.00	-3.00	47.00	9.00	44.00
-40.00	73.00	-248.00	-92.00	47.00	13.00	9.00
-30.00	65.00	-465.00	-82.00	11.00	11.00	-45.00
-45.00	77.00	-479.00	-168.00	6.00	18.00	-53.00
-43.00	69.00	-173.00	-201.00	35.00	29.00	-34.00
-15.00	68.00	73.00	-178.00	18.00	17.00	-37.00
12.00	51.00	157.00	-115.00	2.00	6.00	-50.00
-2.00	19.00	140.00	-34.00	-1.00	4.00	-58.00
42.00	-8.00	44.00	58.00	-17.00	7.00	-54.00
39.00	-46.00	-14.00	119.00	-13.00	14.00	-37.00
19.00	-48.00	-58.00	131.00	13.00	14.00	-32.00
9.00	-22.00	-89.00	106.00	22.00	23.00	-34.00
10.00	8.00	-129.00	56.00	32.00	29.00	-15.00
4.00	50.00	-79.00	4.00	25.00	16.00	-13.00
6.00	62.00	46.00	17.00	25.00	10.00	-7.00
3.00	66.00	268.00	30.00	28.00	-2.00	-1.00
4.00	34.00	282.00	38.00	8.00	-5.00	-27.00
23.00	-8.00	153.00	48.00	0.00	-5.00	-42.00
39.00	-39.00	-28.00	72.00	1.00	-2.00	-24.00
18.00	-69.00	-201.00	104.00	-19.00	9.00	9.00
24.00	-81.00	-275.00	101.00	-18.00	20.00	33.00
11.00	-86.00	-260.00	42.00	9.00	25.00	53.00
16.00	-89.00	-194.00	14.00	35.00	30.00	87.00
5.00	-50.00	-142.00	65.00	40.00	22.00	104.00
0.00	-9.00	14.00	110.00	24.00	4.00	96.00
-8.00	8.00	147.00	94.00	3.00	-9.00	95.00
17.00	12.00	252.00	18.00	-7.00	-9.00	79.00
26.00	24.00	236.00	15.00	-12.00	-2.00	58.00
55.00	35.00	213.00	38.00	-17.00	2.00	28.00
64.00	46.00	147.00	37.00	-4.00	14.00	16.00
66.00	41.00	-52.00	30.00	-2.00	12.00	-16.00
70.00	36.00	-88.00	-44.00	-14.00	10.00	-37.00
29.00	60.00	110.00	-93.00	-18.00	9.00	-35.00
10.00	87.00	113.00	-90.00	-26.00	0.00	-37.00
-30.00	95.00	116.00	-89.00	-16.00	-2.00	-20.00
-83.00	79.00	32.00	-117.00	-3.00	1.00	-11.00
-113.00	52.00	12.00	-131.00	24.00	8.00	-12.00
-116.00	39.00	88.00	-103.00	28.00	2.00	-36.00
-126.00	26.00	83.00	-60.00	29.00	-5.00	-30.00
-107.00	6.00	-125.00	-43.00	37.00	-4.00	-16.00
-80.00	-24.00	-173.00	-11.00	50.00	11.00	-14.00
-30.00	-20.00	-136.00	25.00	57.00	11.00	-25.00
31.00	-29.00	-190.00	50.00	57.00	13.00	-28.00
76.00	-26.00	-150.00	87.00	45.00	12.00	-21.00
101.00	4.00	-112.00	94.00	28.00	4.00	-22.00
90.00	20.00	-46.00	8.00	18.00	11.00	-30.00
63.00	37.00	-56.00	-21.00	8.00	24.00	-25.00
57.00	64.00	-71.00	19.00	0.00	21.00	-8.00
58.00	70.00	-4.00	46.00	8.00	17.00	7.00
47.00	68.00	0.00	20.00	26.00	27.00	5.00
14.00	66.00	-40.00	0.00	35.00	30.00	12.00
-14.00	36.00	134.00	-7.00	27.00	19.00	31.00
-47.00	56.00	231.00	5.00	10.00	10.00	29.00
-65.00	44.00	223.00	12.00	0.00	-5.00	21.00
-74.00	23.00	135.00	24.00	-11.00	-10.00	8.00
-91.00	-23.00	64.00	14.00	9.00	-6.00	8.00
-105.00	-46.00	-14.00	12.00	35.00	0.00	-3.00
-90.00	-54.00	-108.00	27.00	34.00	0.00	-3.00
-86.00	-47.00	-171.00	44.00	16.00	4.00	-10.00
-83.00	-58.00	-78.00	48.00	4.00	4.00	-20.00
-64.00	-63.00	-77.00	57.00	-2.00	2.00	-62.00
-47.00	-40.00	-106.00	25.00	-8.00	1.00	-85.00
-25.00	-8.00	-73.00	-61.00	-8.00	11.00	-88.00
-24.00	4.00	81.00	-116.00	10.00	14.00	-52.00
-9.00	8.00	169.00	-96.00	35.00	11.00	-77.00
-2.00	9.00	138.00	-55.00	23.00	11.00	-73.00
15.00	12.00	16.00	5.00	20.00	17.00	-44.00
26.00	19.00	-17.00	48.00	15.00	18.00	-38.00
40.00	22.00	-8.00	89.00	-9.00	11.00	-34.00
30.00	34.00	26.00	111.00	-31.00	12.00	-21.00
21.00	75.00	18.00	75.00	-36.00	10.00	-31.00
18.00	85.00	-10.00	5.00	-30.00	9.00	-45.00
16.00	58.00	40.00	-31.00	-22.00	9.00	-24.00
30.00	28.00	41.00	-40.00	-16.00	4.00	12.00
33.00	15.00	62.00	-20.00	-9.00	6.00	49.00
26.00	13.00	63.00	-6.00	-4.00	10.00	92.00
-4.00	6.00	98.00	-49.00	1.00	6.00	127.00
17.00	-6.00	15.00	-39.00	4.00	-4.00	141.00
49.00	-14.00	-140.00	16.00	9.00	0.00	121.00
52.00	-21.00	-141.00	59.00	15.00	9.00	105.00
30.00	-18.00	-92.00	71.00	17.00	8.00	99.00
44.00	2.00	39.00	81.00	1.00	16.00	82.00
60.00	20.00	92.00	98.00	2.00	9.00	56.00
63.00	14.00	42.00	71.00	-3.00	6.00	38.00
81.00	20.00	-41.00	5.00	23.00	9.00	34.00
62.00	50.00	-87.00	-2.00	47.00	11.00	29.00
64.00	92.00	-7.00	-5.00	51.00	20.00	26.00
28.00	93.00	57.00	-12.00	54.00	18.00	38.00
-3.00	72.00	180.00	-26.00	45.00	12.00	56.00
-19.00	32.00	182.00	-57.00	14.00	6.00	52.00
-35.00	-11.00	120.00	-68.00	-12.00	-1.00	36.00
-19.00	-50.00	236.00	-79.00	-37.00	-7.00	24.00
-28.00	-84.00	243.00	-36.00	-42.00	-10.00	12.00
-13.00	-79.00	129.00	15.00	-25.00	-5.00	-1.00
-14.00	-58.00	-112.00	68.00	-13.00	-2.00	-19.00
-11.00	-34.00	-336.00	19.00	3.00	8.00	-28.00
-35.00	-12.00	-472.00	22.00	4.00	18.00	-26.00
-27.00	20.00	-456.00	60.00	26.00	34.00	-23.00
-43.00	33.00	-356.00	37.00	57.00	53.00	-22.00
-55.00	58.00	-66.00	-9.00	63.00	59.00	2.00
-53.00	95.00	99.00	-20.00	41.00	39.00	13.00
-44.00	109.00	143.00	-63.00	34.00	20.00	16.00
-31.00	146.00	26.00	-64.00	28.00	10.00	23.00
-16.00	115.00	-48.00	-43.00	8.00	10.00	17.00
-14.00	77.00	-66.00	-27.00	0.00	2.00	0.00
0.00	41.00	-61.00	17.00	-11.00	-15.00	-19.00
18.00	-2.00	7.00	45.00	-27.00	-27.00	-29.00
24.00	-38.00	101.00	61.00	-13.00	-20.00	-25.00
23.00	-98.00	193.00	101.00	11.00	-8.00	-1.00
56.00	-148.00	300.00	72.00	44.00	6.00	-1.00
54.00	-162.00	276.00	13.00	70.00	17.00	2.00
38.00	-138.00	142.00	7.00	69.00	24.00	4.00
31.00	-92.00	4.00	20.00	65.00	31.00	6.00
33.00	-39.00	-45.00	22.00	60.00	27.00	18.00
29.00	-7.00	-66.00	37.00	61.00	19.00	26.00
9.00	17.00	-99.00	16.00	59.00	11.00	29.00
32.00	36.00	-60.00	9.00	52.00	4.00	29.00
31.00	41.00	-32.00	31.00	14.00	-16.00	28.00
12.00	35.00	48.00	5.00	-13.00	-43.00	22.00
-32.00	11.00	2.00	2.00	-19.00	-31.00	20.00
-47.00	62.00	-1.00	14.00	-22.00	-3.00	-8.00
-63.00	70.00	4.00	-70.00	-10.00	20.00	-31.00
-56.00	69.00	-142.00	-89.00	-18.00	19.00	-34.00
-88.00	65.00	-187.00	-45.00	-36.00	21.00	-31.00
-78.00	69.00	-204.00	-42.00	-29.00	18.00	-20.00
-74.00	76.00	-201.00	-19.00	-5.00	16.00	-19.00
-50.00	82.00	-28.00	34.00	-2.00	0.00	-46.00
12.00	94.00	60.00	54.00	-5.00	-9.00	-88.00
71.00	84.00	141.00	43.00	-4.00	-8.00	-105.00
92.00	67.00	213.00	65.00	-16.00	-8.00	-83.00
87.00	65.00	151.00	89.00	-50.00	-8.00	-55.00
81.00	57.00	22.00	92.00	-53.00	1.00	-34.00
53.00	66.00	108.00	60.00	-48.00	12.00	-23.00
31.00	56.00	309.00	6.00	-42.00	15.00	-8.00
10.00	28.00	319.00	-4.00	-22.00	16.00	1.00
-6.00	-10.00	185.00	-16.00	-3.00	26.00	-14.00
-5.00	-25.00	86.00	-51.00	25.00	35.00	-24.00
-15.00	-25.00	-71.00	-68.00	41.00	36.00	-43.00
-31.00	-17.00	-305.00	-37.00	60.00	40.00	-57.00
-89.00	-13.00	-296.00	-22.00	94.00	37.00	-53.00
-118.00	-34.00	-192.00	-7.00	95.00	22.00	-41.00
-136.00	-42.00	-177.00	41.00	68.00	1.00	-43.00
-125.00	-40.00	-146.00	52.00	40.00	-4.00	-1.00
-95.00	-40.00	-139.00	35.00	26.00	-4.00	51.00
-47.00	-28.00	27.00	-36.00	22.00	-15.00	93.00
-24.00	-6.00	224.00	-118.00	16.00	-26.00	86.00
17.00	12.00	264.00	-178.00	0.00	-41.00	84.00
32.00	40.00	130.00	-194.00	-8.00	-42.00	82.00
24.00	48.00	-6.00	-111.00	-37.00	-13.00	81.00
8.00	34.00	-101.00	-36.00	-47.00	19.00	39.00
19.00	22.00	-159.00	11.00	-10.00	29.00	-11.00
46.00	21.00	-228.00	117.00	14.00	26.00	-36.00
62.00	37.00	-184.00	157.00	42.00	24.00	-15.00
90.00	33.00	-78.00	153.00	37.00	19.00	-21.00
89.00	22.00	110.00	110.00	31.00	31.00	-11.00
95.00	10.00	198.00	89.00	25.00	29.00	5.00
116.00	-14.00	104.00	56.00	15.00	27.00	-1.00
128.00	-27.00	43.00	42.00	17.00	22.00	3.00
76.00	-23.00	105.00	99.00	14.00	-7.00	19.00
5.00	-24.00	167.00	75.00	14.00	-11.00	24.00
-6.00	-20.00	171.00	57.00	16.00	8.00	-13.00
-47.00	-25.00	274.00	27.00	27.00	12.00	-35.00
-62.00	-25.00	339.00	-24.00	36.00	12.00	-23.00
-95.00	-13.00	267.00	-49.00	42.00	3.00	-14.00
-110.00	45.00	151.00	-51.00	35.00	-6.00	-31.00
-123.00	144.00	64.00	-82.00	24.00	-10.00	4.00
-110.00	148.00	-5.00	-84.00	13.00	-4.00	10.00
-74.00	89.00	-240.00	-11.00	-2.00	-11.00	37.00
-61.00	36.00	-325.00	40.00	-3.00	-7.00	41.00
-30.00	-7.00	-294.00	47.00	8.00	11.00	-11.00
-24.00	-29.00	-192.00	16.00	15.00	25.00	-46.00
-18.00	-42.00	-185.00	41.00	-1.00	18.00	-35.00
-3.00	-72.00	-276.00	22.00	0.00	26.00	-21.00
18.00	-97.00	-351.00	14.00	-4.00	15.00	-41.00
39.00	-92.00	-316.00	13.00	-11.00	7.00	-58.00
53.00	-85.00	-231.00	22.00	-31.00	-5.00	-67.00
59.00	-52.00	-49.00	21.00	-27.00	1.00	-87.00
42.00	-16.00	114.00	-9.00	-6.00	4.00	-75.00
37.00	-1.00	191.00	-28.00	11.00	0.00	-54.00
14.00	28.00	106.00	-51.00	23.00	-8.00	-35.00
10.00	45.00	37.00	-74.00	13.00	-13.00	32.00
12.00	31.00	-27.00	-113.00	9.00	-5.00	40.00
13.00	21.00	-74.00	-182.00	5.00	17.00	43.00
14.00	24.00	-120.00	-158.00	0.00	24.00	51.00
22.00	20.00	-63.00	-103.00	-12.00	14.00	63.00
19.00	12.00	62.00	-14.00	-4.00	5.00	57.00
18.00	31.00	75.00	71.00	7.00	3.00	73.00
29.00	27.00	100.00	151.00	31.00	20.00	61.00
24.00	29.00	146.00	290.00	58.00	38.00	58.00
24.00	45.00	310.00	266.00	61.00	21.00	59.00
24.00	47.00	358.00	155.00	66.00	11.00	52.00
10.00	8.00	316.00	71.00	30.00	6.00	50.00
6.00	-5.00	247.00	37.00	0.00	-1.00	75.00
26.00	7.00	122.00	17.00	-9.00	4.00	44.00
25.00	20.00	-92.00	-7.00	-30.00	1.00	43.00
49.00	17.00	-327.00	25.00	-28.00	11.00	42.00
30.00	11.00	-310.00	44.00	-8.00	41.00	2.00
50.00	23.00	-157.00	42.00	-3.00	58.00	-30.00
30.00	32.00	33.00	12.00	1.00	35.00	-39.00
43.00	46.00	140.00	-58.00	10.00	21.00	-48.00
-1.00	60.00	175.00	-71.00	9.00	20.00	-59.00
-36.00	89.00	210.00	-82.00	-4.00	13.00	-82.00
-56.00	106.00	226.00	-72.00	0.00	14.00	-77.00
-65.00	111.00	136.00	-50.00	-4.00	16.00	-70.00
-64.00	74.00	38.00	-48.00	18.00	20.00	-59.00
-48.00	27.00	-35.00	-52.00	23.00	15.00	-59.00
-48.00	15.00	-96.00	-35.00	23.00	5.00	-48.00
-25.00	-3.00	-131.00	3.00	21.00	5.00	-41.00
15.00	-32.00	-104.00	47.00	51.00	7.00	-34.00
27.00	-40.00	-91.00	8.00	73.00	10.00	-39.00
27.00	-45.00	-79.00	-41.00	73.00	8.00	-49.00
24.00	-48.00	-35.00	-56.00	53.00	0.00	-49.00
41.00	-37.00	-22.00	-45.00	18.00	-6.00	-62.00
31.00	-14.00	97.00	-31.00	2.00	-5.00	-78.00
14.00	-2.00	84.00	29.00	-13.00	-6.00	-55.00
-36.00	17.00	-71.00	36.00	-20.00	-8.00	-49.00
-42.00	9.00	-53.00	20.00	-17.00	-5.00	-22.00
-52.00	28.00	-68.00	94.00	-12.00	-10.00	-3.00
-79.00	62.00	-27.00	67.00	-8.00	-16.00	5.00
-79.00	92.00	-40.00	32.00	-4.00	-5.00	21.00
-79.00	95.00	-114.00	25.00	1.00	11.00	34.00
-72.00	75.00	-3.00	-37.00	-8.00	33.00	26.00
-59.00	67.00	219.00	-68.00	-11.00	21.00	-21.00
-65.00	62.00	241.00	-29.00	-1.00	27.00	-28.00
-4.00	42.00	112.00	57.00	-6.00	36.00	-57.00
1.00	32.00	-20.00	70.00	0.00	27.00	-69.00
27.00	31.00	-232.00	75.00	19.00	26.00	-55.00
50.00	15.00	-371.00	143.00	25.00	24.00	-28.00
82.00	-1.00	-365.00	164.00	17.00	16.00	-58.00
67.00	-15.00	-309.00	139.00	22.00	5.00	-95.00
98.00	-17.00	-51.00	95.00	34.00	13.00	-70.00
109.00	-34.00	212.00	-19.00	23.00	3.00	-29.00
91.00	-62.00	310.00	-141.00	16.00	-2.00	-9.00
103.00	-104.00	311.00	-167.00	20.00	6.00	2.00
78.00	-115.00	208.00	-111.00	23.00	17.00	29.00
20.00	-87.00	257.00	-78.00	18.00	15.00	58.00
-21.00	-75.00	186.00	-66.00	1.00	-4.00	101.00
-54.00	-51.00	-78.00	8.00	-3.00	-8.00	106.00
-68.00	-34.00	-273.00	-18.00	11.00	0.00	85.00
-93.00	10.00	-240.00	-70.00	12.00	-8.00	94.00
-154.00	26.00	-237.00	-93.00	3.00	-40.00	87.00
-162.00	45.00	-166.00	-106.00	-5.00	-43.00	30.00
-135.00	60.00	-95.00	-20.00	7.00	-26.00	11.00
-125.00	65.00	14.00	32.00	25.00	-17.00	6.00
-119.00	49.00	29.00	13.00	39.00	2.00	31.00
-84.00	43.00	16.00	17.00	60.00	17.00	67.00
-25.00	60.00	56.00	70.00	75.00	34.00	42.00
40.00	75.00	42.00	159.00	63.00	23.00	60.00
94.00	53.00	-58.00	168.00	11.00	9.00	82.00
121.00	33.00	-136.00	162.00	-6.00	19.00	105.00
116.00	53.00	-177.00	154.00	28.00	38.00	70.00
100.00	62.00	-113.00	84.00	20.00	36.00	50.00
65.00	68.00	-115.00	17.00	18.00	35.00	47.00
21.00	69.00	-34.00	-34.00	29.00	36.00	6.00
-40.00	65.00	103.00	-78.00	13.00	14.00	-38.00
-81.00	51.00	169.00	-105.00	3.00	12.00	-30.00
-74.00	34.00	177.00	-94.00	-8.00	16.00	-22.00
-59.00	-4.00	186.00	-75.00	-25.00	19.00	-12.00
-31.00	-44.00	165.00	-84.00	-18.00	10.00	1.00
-13.00	-72.00	132.00	-58.00	-5.00	-4.00	28.00
12.00	-86.00	140.00	-32.00	-6.00	-12.00	27.00
35.00	-59.00	115.00	-2.00	-1.00	-12.00	47.00
56.00	-33.00	128.00	15.00	14.00	-16.00	68.00
77.00	-22.00	150.00	36.00	2.00	-25.00	76.00
80.00	-20.00	70.00	47.00	-7.00	-20.00	77.00
66.00	-12.00	-11.00	30.00	8.00	-6.00	76.00
22.00	-11.00	-40.00	53.00	12.00	-2.00	75.00
14.00	1.00	13.00	68.00	-4.00	3.00	74.00
2.00	11.00	40.00	42.00	21.00	3.00	62.00
17.00	29.00	-16.00	47.00	34.00	4.00	43.00
13.00	28.00	92.00	-7.00	35.00	10.00	3.00
22.00	16.00	44.00	-77.00	21.00	5.00	35.00
58.00	20.00	-9.00	-123.00	-7.00	-11.00	44.00
53.00	21.00	77.00	-144.00	-21.00	-11.00	38.00
69.00	6.00	84.00	-95.00	-14.00	-4.00	12.00
49.00	4.00	17.00	-38.00	-5.00	1.00	-14.00
62.00	9.00	-110.00	-20.00	4.00	17.00	-27.00
23.00	41.00	-137.00	58.00	16.00	21.00	-34.00
12.00	63.00	-90.00	168.00	12.00	13.00	-39.00
1.00	76.00	-34.00	174.00	3.00	5.00	-60.00
-4.00	77.00	182.00	87.00	18.00	15.00	-52.00
-9.00	29.00	207.00	20.00	22.00	11.00	-37.00
0.00	11.00	42.00	-7.00	1.00	3.00	-19.00
-18.00	2.00	-199.00	-7.00	1.00	5.00	-30.00
4.00	3.00	-392.00	-2.00	5.00	22.00	-39.00
-33.00	-6.00	-457.00	36.00	2.00	39.00	-22.00
-63.00	-22.00	-405.00	51.00	15.00	62.00	5.00
-82.00	-27.00	-259.00	50.00	25.00	70.00	36.00
-77.00	-42.00	-167.00	24.00	12.00	34.00	72.00
-58.00	-44.00	5.00	-19.00	3.00	-5.00	98.00
-49.00	-26.00	25.00	-14.00	1.00	-1.00	141.00
-42.00	-7.00	-37.00	22.00	9.00	13.00	179.00
-38.00	13.00	-21.00	42.00	17.00	21.00	139.00
-46.00	30.00	90.00	64.00	14.00	9.00	26.00
-9.00	47.00	165.00	108.00	11.00	26.00	-77.00
-8.00	51.00	228.00	43.00	15.00	24.00	-167.00
24.00	51.00	319.00	11.00	13.00	5.00	-179.00
26.00	29.00	258.00	9.00	20.00	3.00	-121.00
22.00	19.00	167.00	-2.00	28.00	7.00	-77.00
24.00	20.00	78.00	12.00	23.00	7.00	-53.00
31.00	20.00	-21.00	-21.00	19.00	18.00	-63.00
50.00	26.00	-62.00	-4.00	25.00	20.00	-102.00
40.00	60.00	22.00	7.00	32.00	14.00	-100.00
32.00	71.00	216.00	34.00	27.00	-2.00	-64.00
29.00	66.00	374.00	9.00	10.00	-18.00	-53.00
37.00	36.00	540.00	-45.00	6.00	-39.00	-75.00
58.00	20.00	437.00	-29.00	-19.00	-60.00	-65.00
61.00	28.00	89.00	-131.00	-31.00	-53.00	-31.00
35.00	42.00	-262.00	-114.00	-7.00	-25.00	0.00
16.00	43.00	-431.00	-91.00	10.00	4.00	27.00
-2.00	20.00	-598.00	-85.00	30.00	19.00	33.00
-19.00	-11.00	-654.00	-28.00	87.00	46.00	42.00
-74.00	-14.00	-372.00	21.00	93.00	38.00	10.00
-83.00	-20.00	-103.00	89.00	69.00	30.00	-16.00
-72.00	-45.00	-21.00	35.00	32.00	37.00	-12.00
-73.00	-61.00	-45.00	17.00	17.00	40.00	-14.00
-40.00	-60.00	-3.00	48.00	-5.00	29.00	-28.00
-23.00	-25.00	-60.00	23.00	-13.00	24.00	-33.00
-18.00	-1.00	-146.00	-17.00	2.00	19.00	3.00
-36.00	30.00	-65.00	9.00	18.00	20.00	4.00
-35.00	70.00	-30.00	40.00	31.00	17.00	-3.00
-65.00	95.00	27.00	17.00	44.00	19.00	-30.00
-77.00	108.00	139.00	24.00	50.00	9.00	-40.00
-61.00	122.00	543.00	-5.00	30.00	-16.00	-36.00
-68.00	99.00	678.00	-8.00	9.00	-25.00	-53.00
-26.00	64.00	550.00	38.00	5.00	0.00	-42.00
10.00	7.00	261.00	69.00	-10.00	-1.00	-19.00
63.00	-56.00	-22.00	25.00	-25.00	-16.00	7.00
76.00	-84.00	-180.00	-39.00	-51.00	-7.00	-2.00
75.00	-109.00	-418.00	6.00	-46.00	3.00	5.00
58.00	-131.00	-480.00	77.00	-18.00	23.00	40.00
39.00	-113.00	-263.00	41.00	1.00	21.00	50.00
43.00	-118.00	-89.00	30.00	-15.00	1.00	71.00
8.00	-102.00	-65.00	7.00	-20.00	2.00	76.00
-11.00	-111.00	-120.00	10.00	-15.00	17.00	-19.00
-47.00	-70.00	-202.00	68.00	-22.00	18.00	-48.00
-61.00	2.00	-109.00	89.00	-18.00	20.00	-26.00
-45.00	38.00	-24.00	73.00	-21.00	27.00	-37.00
-11.00	46.00	-60.00	17.00	10.00	45.00	-63.00
3.00	48.00	-24.00	-28.00	54.00	62.00	-85.00
-12.00	71.00	119.00	-94.00	66.00	51.00	-49.00
-29.00	73.00	172.00	-96.00	66.00	23.00	1.00
-48.00	76.00	65.00	-54.00	75.00	-9.00	9.00
-74.00	84.00	-28.00	-17.00	53.00	-7.00	9.00
-33.00	88.00	-5.00	12.00	32.00	32.00	25.00
-29.00	93.00	68.00	36.00	7.00	5.00	35.00
-17.00	105.00	164.00	19.00	-14.00	-28.00	21.00
6.00	94.00	294.00	-46.00	7.00	-26.00	38.00
25.00	86.00	298.00	-76.00	8.00	-21.00	52.00
40.00	69.00	179.00	-78.00	-23.00	-24.00	39.00
42.00	50.00	75.00	-96.00	-51.00	-35.00	-8.00
55.00	57.00	21.00	-153.00	-58.00	-31.00	-72.00
47.00	59.00	1.00	-185.00	-53.00	-19.00	-117.00
48.00	62.00	74.00	-209.00	-44.00	-21.00	-92.00
45.00	40.00	162.00	-154.00	-38.00	-17.00	-43.00
59.00	-3.00	218.00	-37.00	-48.00	-6.00	-12.00
76.00	-11.00	178.00	84.00	-32.00	8.00	17.00
72.00	-18.00	-39.00	151.00	-9.00	30.00	44.00
58.00	-23.00	-145.00	191.00	-5.00	48.00	74.00
34.00	6.00	-242.00	336.00	18.00	67.00	65.00
-3.00	84.00	-243.00	333.00	42.00	60.00	36.00
0.00	128.00	-112.00	223.00	55.00	46.00	40.00
-27.00	120.00	-56.00	136.00	59.00	33.00	13.00
-18.00	73.00	-129.00	113.00	72.00	21.00	5.00
-4.00	13.00	-134.00	117.00	80.00	8.00	19.00
13.00	-34.00	-143.00	190.00	79.00	19.00	23.00
26.00	-83.00	-63.00	190.00	77.00	20.00	-46.00
42.00	-118.00	-48.00	183.00	48.00	7.00	-80.00
49.00	-136.00	-126.00	55.00	30.00	-14.00	-80.00
40.00	-145.00	-71.00	-60.00	25.00	-11.00	10.00
85.00	-141.00	72.00	-60.00	16.00	-26.00	93.00
73.00	-122.00	168.00	-110.00	9.00	-36.00	151.00
28.00	-72.00	198.00	-143.00	-12.00	-50.00	166.00
-25.00	-37.00	239.00	-232.00	-20.00	-33.00	156.00
-44.00	-6.00	305.00	-228.00	-11.00	-6.00	107.00
-53.00	37.00	99.00	-111.00	-1.00	9.00	-3.00
-55.00	85.00	-199.00	-61.00	9.00	27.00	-137.00
-74.00	88.00	-228.00	-120.00	4.00	22.00	-161.00
-76.00	82.00	-228.00	-58.00	9.00	30.00	-131.00
-82.00	71.00	-233.00	29.00	7.00	53.00	-70.00
-86.00	49.00	-143.00	32.00	-5.00	65.00	-57.00
-79.00	26.00	-96.00	-16.00	-24.00	59.00	-41.00
-51.00	1.00	-28.00	-105.00	-25.00	43.00	-16.00
-16.00	-10.00	-6.00	-231.00	-12.00	7.00	0.00
-30.00	-16.00	108.00	-213.00	-14.00	-36.00	7.00
28.00	-3.00	213.00	-164.00	-13.00	-26.00	19.00
47.00	46.00	165.00	-75.00	8.00	-28.00	26.00
89.00	107.00	185.00	10.00	16.00	-28.00	22.00
116.00	100.00	160.00	101.00	34.00	-9.00	0.00
126.00	73.00	46.00	183.00	62.00	28.00	-52.00
121.00	29.00	-107.00	240.00	58.00	49.00	-20.00
105.00	2.00	-257.00	217.00	9.00	51.00	10.00
107.00	-11.00	-224.00	148.00	22.00	46.00	47.00
87.00	-31.00	-30.00	133.00	20.00	31.00	65.00
33.00	-55.00	161.00	68.00	15.00	19.00	36.00
-15.00	-84.00	152.00	3.00	28.00	22.00	4.00
-72.00	-85.00	305.00	44.00	32.00	17.00	-38.00
-138.00	-50.00	237.00	54.00	24.00	6.00	-70.00
-199.00	-12.00	-20.00	34.00	16.00	5.00	-6.00
-240.00	1.00	-170.00	-67.00	11.00	13.00	45.00
-238.00	18.00	-185.00	-144.00	51.00	19.00	46.00
-216.00	28.00	-274.00	-137.00	69.00	2.00	75.00
-166.00	46.00	-342.00	-61.00	46.00	-24.00	24.00
-133.00	62.00	-271.00	-27.00	30.00	-32.00	-32.00
-96.00	112.00	-23.00	-46.00	0.00	-28.00	-16.00
-77.00	147.00	73.00	-41.00	-6.00	-4.00	1.00
-17.00	135.00	104.00	14.00	2.00	19.00	-15.00
26.00	92.00	176.00	41.00	-10.00	29.00	-86.00
82.00	47.00	261.00	74.00	-37.00	7.00	-82.00
128.00	16.00	186.00	106.00	-36.00	-3.00	-21.00
138.00	-17.00	116.00	138.00	-31.00	-6.00	22.00
173.00	-50.00	84.00	136.00	-21.00	3.00	55.00
149.00	-65.00	-11.00	105.00	1.00	7.00	71.00
126.00	-83.00	-97.00	43.00	13.00	18.00	11.00
87.00	-71.00	-77.00	2.00	-1.00	5.00	-41.00
65.00	-56.00	-53.00	-11.00	-3.00	-5.00	-18.00
39.00	-51.00	-34.00	-48.00	-2.00	-5.00	-8.00
7.00	-44.00	-101.00	-98.00	14.00	-9.00	7.00
-7.00	-14.00	-13.00	-111.00	38.00	4.00	28.00
-26.00	10.00	298.00	-97.00	33.00	0.00	35.00
-22.00	51.00	605.00	-59.00	18.00	0.00	27.00
-26.00	66.00	481.00	-4.00	14.00	5.00	12.00
-13.00	61.00	197.00	25.00	17.00	11.00	35.00
-21.00	77.00	36.00	52.00	3.00	15.00	3.00
-34.00	65.00	-238.00	22.00	-15.00	43.00	-29.00
-29.00	61.00	-668.00	67.00	5.00	77.00	-32.00
-25.00	63.00	-639.00	227.00	33.00	67.00	-48.00
-12.00	28.00	-226.00	169.00	29.00	11.00	-27.00
20.00	2.00	64.00	-6.00	4.00	-25.00	27.00
28.00	-16.00	241.00	-180.00	-12.00	-50.00	29.00
10.00	-22.00	355.00	-230.00	-14.00	-57.00	12.00
27.00	-2.00	327.00	-212.00	-2.00	-30.00	-23.00
3.00	9.00	205.00	-117.00	7.00	22.00	-48.00
26.00	-3.00	-81.00	-164.00	4.00	53.00	-61.00
23.00	17.00	-372.00	-64.00	35.00	60.00	-53.00
23.00	22.00	-497.00	22.00	47.00	47.00	-27.00
10.00	25.00	-337.00	-11.00	40.00	30.00	-20.00
41.00	28.00	-43.00	-50.00	25.00	10.00	-19.00
48.00	24.00	35.00	27.00	13.00	-1.00	-5.00
39.00	24.00	-52.00	184.00	0.00	-2.00	36.00
37.00	26.00	64.00	189.00	-19.00	8.00	57.00
44.00	15.00	24.00	177.00	-29.00	29.00	65.00
23.00	13.00	-128.00	191.00	-10.00	37.00	77.00
5.00	36.00	-225.00	221.00	14.00	22.00	71.00
-33.00	48.00	-48.00	167.00	38.00	1.00	86.00
-18.00	52.00	116.00	115.00	26.00	-26.00	46.00
-32.00	63.00	219.00	11.00	19.00	-27.00	37.00
-54.00	49.00	380.00	-59.00	21.00	-42.00	20.00
-38.00	40.00	378.00	-125.00	20.00	-44.00	-11.00
4.00	27.00	337.00	-132.00	8.00	-44.00	-4.00
19.00	50.00	194.00	-102.00	-11.00	-46.00	4.00
19.00	64.00	37.00	-56.00	-38.00	-33.00	-58.00
17.00	56.00	-43.00	-11.00	-26.00	12.00	-87.00
10.00	66.00	-187.00	77.00	-15.00	50.00	-38.00
-21.00	66.00	-312.00	187.00	18.00	54.00	-12.00
-76.00	54.00	-152.00	145.00	35.00	48.00	-15.00
-92.00	-1.00	181.00	39.00	55.00	56.00	4.00
-78.00	-75.00	311.00	4.00	46.00	24.00	-8.00
-66.00	-148.00	158.00	-30.00	49.00	8.00	-39.00
-14.00	-148.00	22.00	-87.00	43.00	12.00	-40.00
1.00	-128.00	-206.00	-94.00	38.00	22.00	10.00
27.00	-97.00	-371.00	-26.00	57.00	58.00	21.00
17.00	-51.00	-379.00	8.00	57.00	70.00	17.00
2.00	9.00	-277.00	-48.00	22.00	31.00	-2.00
29.00	32.00	-106.00	-71.00	-16.00	-17.00	-4.00
31.00	33.00	0.00	-97.00	-28.00	-36.00	-7.00
35.00	13.00	119.00	-113.00	-36.00	-42.00	22.00
32.00	-2.00	136.00	-66.00	-33.00	-21.00	25.00
37.00	-32.00	70.00	13.00	-10.00	18.00	-3.00
25.00	-43.00	-70.00	109.00	-1.00	52.00	-25.00
8.00	-37.00	-66.00	110.00	-25.00	62.00	-19.00
-13.00	-38.00	45.00	48.00	20.00	39.00	-29.00
-59.00	-34.00	85.00	38.00	39.00	-15.00	-48.00
-81.00	-8.00	60.00	3.00	39.00	-55.00	-51.00
-112.00	20.00	84.00	-17.00	48.00	-39.00	-47.00
-120.00	48.00	161.00	37.00	56.00	-11.00	-90.00
-112.00	63.00	177.00	51.00	40.00	1.00	-86.00
-108.00	66.00	123.00	49.00	35.00	13.00	-35.00
-101.00	66.00	58.00	25.00	32.00	28.00	-25.00
-70.00	67.00	7.00	-27.00	39.00	36.00	-40.00
-72.00	59.00	-61.00	-73.00	43.00	27.00	-56.00
-64.00	65.00	-92.00	-111.00	16.00	9.00	-43.00
-25.00	78.00	-37.00	-125.00	2.00	0.00	-59.00
-7.00	71.00	45.00	-82.00	16.00	-14.00	-99.00
17.00	60.00	159.00	-16.00	14.00	-14.00	-76.00
27.00	42.00	228.00	21.00	17.00	-6.00	-28.00
23.00	21.00	157.00	22.00	17.00	-24.00	3.00
42.00	26.00	5.00	16.00	14.00	8.00	5.00
112.00	47.00	-108.00	101.00	-16.00	-3.00	11.00
108.00	44.00	-46.00	-6.00	-57.00	-39.00	15.00
126.00	-17.00	43.00	-154.00	-58.00	-38.00	26.00
123.00	-23.00	-53.00	-135.00	-54.00	-27.00	67.00
90.00	34.00	-21.00	-114.00	-28.00	-12.00	68.00
63.00	45.00	67.00	-121.00	-18.00	-11.00	85.00
45.00	44.00	-52.00	14.00	0.00	20.00	62.00
-18.00	49.00	-219.00	274.00	-7.00	38.00	35.00
-68.00	57.00	-90.00	352.00	9.00	77.00	30.00
-100.00	50.00	-20.00	250.00	25.00	85.00	51.00
-63.00	42.00	-126.00	48.00	27.00	61.00	97.00
-43.00	41.00	-200.00	-6.00	32.00	32.00	117.00
14.00	45.00	-154.00	-36.00	53.00	4.00	105.00
52.00	31.00	-35.00	-51.00	53.00	3.00	104.00
89.00	-17.00	100.00	-52.00	60.00	26.00	62.00
83.00	-42.00	123.00	1.00	56.00	16.00	3.00
72.00	-33.00	65.00	74.00	44.00	-8.00	6.00
93.00	-59.00	70.00	94.00	19.00	-22.00	11.00
87.00	-99.00	17.00	165.00	8.00	-1.00	42.00
75.00	-108.00	-39.00	190.00	7.00	9.00	73.00
64.00	-83.00	17.00	141.00	5.00	-3.00	64.00
46.00	-92.00	138.00	-4.00	20.00	17.00	27.00
27.00	-78.00	180.00	-179.00	33.00	36.00	13.00
20.00	-52.00	124.00	-132.00	20.00	39.00	-43.00
5.00	-21.00	-41.00	-5.00	2.00	14.00	-149.00
-15.00	17.00	-211.00	-2.00	6.00	-1.00	-141.00
-17.00	59.00	-279.00	33.00	40.00	-10.00	-49.00
-20.00	79.00	-244.00	90.00	45.00	-8.00	35.00
-14.00	96.00	-182.00	99.00	16.00	0.00	76.00
0.00	105.00	-66.00	76.00	1.00	10.00	70.00
35.00	92.00	27.00	9.00	-5.00	9.00	51.00
37.00	56.00	152.00	-2.00	-18.00	3.00	-32.00
45.00	21.00	202.00	13.00	-31.00	-15.00	-69.00
62.00	-17.00	151.00	-65.00	-28.00	-21.00	-7.00
42.00	-54.00	71.00	-185.00	-23.00	-22.00	46.00
29.00	-46.00	61.00	-185.00	-28.00	-20.00	22.00
-11.00	1.00	102.00	-144.00	-37.00	0.00	67.00
-13.00	57.00	20.00	-84.00	-37.00	20.00	93.00
-6.00	83.00	16.00	-129.00	-1.00	8.00	74.00
8.00	120.00	-98.00	-166.00	45.00	18.00	55.00
41.00	123.00	-248.00	-123.00	56.00	37.00	27.00
59.00	85.00	-215.00	21.00	47.00	45.00	-47.00
66.00	30.00	-200.00	110.00	23.00	27.00	-161.00
44.00	-40.00	-204.00	180.00	11.00	29.00	-220.00
31.00	-92.00	-138.00	204.00	18.00	40.00	-216.00
-13.00	-109.00	66.00	168.00	18.00	38.00	-149.00
-34.00	-111.00	191.00	124.00	21.00	35.00	-62.00
-66.00	-105.00	367.00	86.00	12.00	17.00	-18.00
-113.00	-101.00	478.00	60.00	24.00	17.00	-12.00
-155.00	-83.00	342.00	0.00	19.00	2.00	28.00
-153.00	-44.00	166.00	-34.00	6.00	-10.00	53.00
-129.00	1.00	-21.00	78.00	-23.00	-12.00	72.00
-103.00	27.00	-138.00	69.00	-11.00	5.00	129.00
-84.00	26.00	-133.00	-13.00	-12.00	-4.00	143.00
-56.00	28.00	-15.00	-59.00	-36.00	6.00	135.00
-54.00	29.00	38.00	-119.00	-40.00	16.00	81.00
-59.00	42.00	-30.00	-130.00	-44.00	-7.00	20.00
-80.00	76.00	-114.00	-137.00	-31.00	-12.00	-57.00
-66.00	127.00	-333.00	-125.00	13.00	3.00	-50.00
-113.00	208.00	-633.00	152.00	48.00	6.00	-24.00
-132.00	238.00	-359.00	185.00	75.00	40.00	-40.00
-114.00	248.00	73.00	46.00	46.00	51.00	-26.00
-59.00	207.00	335.00	-96.00	16.00	48.00	-22.00
-2.00	104.00	390.00	-243.00	0.00	25.00	-25.00
24.00	-12.00	350.00	-289.00	5.00	-38.00	8.00
38.00	-96.00	338.00	-251.00	4.00	-54.00	-27.00
49.00	-125.00	245.00	-67.00	12.00	-33.00	-114.00
59.00	-137.00	73.00	45.00	20.00	4.00	-69.00
49.00	-131.00	-126.00	179.00	15.00	15.00	-41.00
33.00	-136.00	-229.00	327.00	29.00	41.00	-37.00
32.00	-110.00	-244.00	335.00	40.00	67.00	-22.00
26.00	-73.00	-294.00	232.00	40.00	55.00	21.00
49.00	-22.00	-233.00	168.00	38.00	26.00	37.00
85.00	7.00	-68.00	105.00	19.00	-32.00	-56.00
155.00	27.00	-4.00	94.00	10.00	-39.00	-142.00
172.00	51.00	-36.00	71.00	19.00	-31.00	-117.00
181.00	61.00	-19.00	78.00	2.00	-52.00	-63.00
145.00	71.00	35.00	101.00	5.00	-47.00	-3.00
89.00	62.00	209.00	94.00	30.00	5.00	8.00
35.00	51.00	218.00	31.00	53.00	63.00	36.00
-12.00	46.00	217.00	-41.00	62.00	93.00	33.00
-16.00	35.00	138.00	-110.00	10.00	80.00	36.00
-69.00	26.00	106.00	-159.00	-45.00	60.00	36.00
-106.00	2.00	28.00	-167.00	-50.00	27.00	15.00
-143.00	-6.00	4.00	-130.00	-49.00	-3.00	-32.00
-132.00	-12.00	81.00	-164.00	-50.00	-8.00	-36.00
-113.00	-8.00	9.00	-147.00	-23.00	3.00	-28.00
-115.00	5.00	4.00	-68.00	4.00	9.00	-7.00
-89.00	1.00	-121.00	24.00	7.00	5.00	27.00
-71.00	14.00	-121.00	33.00	13.00	-2.00	32.00
-49.00	34.00	-157.00	58.00	13.00	-3.00	-6.00
-31.00	76.00	-99.00	85.00	21.00	5.00	-28.00
-14.00	81.00	-87.00	129.00	20.00	8.00	-33.00
-20.00	71.00	-78.00	53.00	33.00	3.00	11.00
11.00	57.00	-56.00	-14.00	16.00	-1.00	34.00
22.00	45.00	-50.00	14.00	0.00	6.00	-7.00
53.00	37.00	20.00	23.00	27.00	10.00	20.00
53.00	17.00	107.00	-28.00	26.00	-34.00	30.00
58.00	11.00	177.00	-88.00	16.00	-48.00	79.00
76.00	-10.00	289.00	-145.00	-10.00	-3.00	99.00
76.00	-15.00	359.00	-185.00	-37.00	8.00	68.00
67.00	-18.00	419.00	-232.00	-47.00	-44.00	56.00
61.00	-21.00	199.00	-84.00	-12.00	-74.00	72.00
41.00	-6.00	-42.00	65.00	20.00	-33.00	29.00
30.00	14.00	-167.00	116.00	40.00	-15.00	22.00
29.00	52.00	-245.00	50.00	69.00	26.00	-8.00
44.00	68.00	-317.00	56.00	56.00	32.00	-4.00
68.00	47.00	-379.00	5.00	41.00	25.00	44.00
49.00	17.00	-301.00	-23.00	18.00	-1.00	31.00
34.00	-9.00	-124.00	-84.00	9.00	2.00	2.00
3.00	-34.00	-12.00	-174.00	11.00	17.00	-30.00
-26.00	-37.00	125.00	-218.00	1.00	-12.00	-45.00
10.00	-22.00	214.00	-82.00	-13.00	-26.00	-36.00
-10.00	57.00	93.00	97.00	-10.00	20.00	12.00
-47.00	104.00	61.00	169.00	31.00	76.00	39.00
-62.00	111.00	-13.00	290.00	46.00	77.00	34.00
-70.00	72.00	-164.00	343.00	37.00	44.00	33.00
-78.00	-3.00	-270.00	316.00	41.00	51.00	-49.00
-50.00	-80.00	-273.00	233.00	68.00	57.00	-123.00
-48.00	-130.00	-159.00	133.00	33.00	29.00	-82.00
-2.00	-166.00	-11.00	5.00	17.00	-3.00	-11.00
2.00	-170.00	142.00	-76.00	25.00	-17.00	43.00
18.00	-159.00	278.00	-71.00	20.00	-1.00	46.00
28.00	-126.00	351.00	0.00	-6.00	21.00	46.00
8.00	-80.00	275.00	12.00	-2.00	22.00	45.00
-4.00	-33.00	84.00	-62.00	1.00	0.00	28.00
-11.00	-7.00	-111.00	-132.00	1.00	-28.00	-4.00
-2.00	16.00	72.00	-139.00	0.00	7.00	11.00
17.00	47.00	257.00	-85.00	-26.00	-7.00	11.00
51.00	73.00	313.00	-49.00	-36.00	-25.00	-29.00
86.00	77.00	195.00	-98.00	-32.00	-16.00	-26.00
98.00	118.00	-69.00	18.00	-20.00	-7.00	36.00
88.00	154.00	-311.00	138.00	-4.00	10.00	61.00
23.00	158.00	-452.00	168.00	13.00	23.00	14.00
-59.00	123.00	-383.00	101.00	47.00	46.00	7.00
-123.00	100.00	-378.00	90.00	65.00	52.00	-15.00
-179.00	93.00	-186.00	98.00	29.00	37.00	-22.00
-152.00	71.00	-54.00	51.00	6.00	30.00	-16.00
-112.00	35.00	-77.00	57.00	4.00	34.00	-26.00
-63.00	45.00	-94.00	63.00	-9.00	26.00	-28.00
-3.00	86.00	14.00	35.00	-8.00	20.00	-73.00
81.00	104.00	130.00	-62.00	6.00	-2.00	-85.00
167.00	86.00	192.00	-246.00	8.00	-24.00	-93.00
167.00	20.00	121.00	-194.00	-3.00	4.00	-84.00
127.00	-44.00	83.00	-141.00	14.00	36.00	-56.00
65.00	-96.00	66.00	-120.00	14.00	16.00	-16.00
5.00	-123.00	82.00	-43.00	25.00	7.00	8.00
-63.00	-137.00	121.00	13.00	47.00	-21.00	64.00
-89.00	-140.00	151.00	120.00	40.00	-35.00	75.00
-99.00	-115.00	225.00	163.00	7.00	-29.00	92.00
-87.00	-77.00	291.00	-21.00	-6.00	-35.00	117.00
-102.00	-35.00	208.00	8.00	-25.00	-24.00	111.00
-75.00	-7.00	163.00	41.00	-25.00	1.00	98.00
-88.00	-12.00	106.00	22.00	16.00	112.00	7.00
-46.00	-5.00	35.00	38.00	24.00	77.00	-47.00
2.00	19.00	-95.00	35.00	0.00	-28.00	-84.00
-9.00	40.00	-209.00	56.00	-1.00	-26.00	-146.00
-17.00	74.00	-312.00	84.00	9.00	8.00	-128.00
-30.00	100.00	-165.00	4.00	22.00	15.00	-61.00
-41.00	102.00	94.00	-53.00	33.00	10.00	-7.00
-16.00	77.00	369.00	-127.00	10.00	-7.00	3.00
-18.00	51.00	328.00	-125.00	-9.00	-10.00	12.00
-16.00	63.00	122.00	-72.00	-5.00	-7.00	-33.00
-6.00	76.00	-184.00	-77.00	9.00	-7.00	-49.00
60.00	88.00	-437.00	-134.00	24.00	-5.00	-38.00
43.00	90.00	-480.00	-113.00	9.00	-18.00	15.00
33.00	69.00	-271.00	32.00	6.00	-10.00	57.00
35.00	69.00	-63.00	203.00	2.00	3.00	92.00
45.00	65.00	37.00	150.00	21.00	34.00	121.00
61.00	37.00	5.00	51.00	40.00	51.00	143.00
63.00	-7.00	-83.00	23.00	41.00	37.00	159.00
42.00	-36.00	-97.00	41.00	33.00	36.00	126.00
46.00	-41.00	-64.00	48.00	6.00	19.00	64.00
46.00	-45.00	46.00	-21.00	-11.00	-10.00	9.00
35.00	-41.00	61.00	-11.00	-4.00	-9.00	-10.00
56.00	12.00	-11.00	47.00	33.00	-13.00	13.00
61.00	91.00	22.00	84.00	69.00	14.00	-12.00
65.00	90.00	48.00	50.00	88.00	50.00	-25.00
52.00	76.00	39.00	47.00	57.00	41.00	14.00
41.00	72.00	-5.00	112.00	21.00	2.00	42.00
2.00	46.00	15.00	175.00	6.00	19.00	57.00
2.00	16.00	58.00	254.00	36.00	28.00	47.00
-40.00	14.00	104.00	109.00	67.00	35.00	34.00
-67.00	-11.00	189.00	45.00	51.00	-3.00	33.00
-33.00	-66.00	153.00	-52.00	57.00	-18.00	35.00
-15.00	-119.00	201.00	-144.00	59.00	-10.00	16.00
