
28.00	94.00	24.00	89.00	-7.00	-75.00	-13.00
41.00	131.00	-100.00	94.00	9.00	-115.00	25.00
66.00	156.00	-157.00	60.00	12.00	-182.00	43.00
67.00	122.00	-312.00	-180.00	15.00	17.00	28.00
55.00	65.00	-181.00	-207.00	20.00	132.00	12.00
34.00	2.00	28.00	-128.00	5.00	135.00	3.00
10.00	-63.00	76.00	-28.00	6.00	66.00	-1.00
-15.00	-116.00	75.00	27.00	8.00	80.00	8.00
-41.00	-125.00	43.00	52.00	7.00	70.00	1.00
-60.00	-119.00	-18.00	-35.00	4.00	88.00	-4.00
-75.00	-85.00	-20.00	-102.00	21.00	-245.00	4.00
-84.00	-40.00	18.00	-69.00	30.00	-487.00	23.00
-81.00	-10.00	65.00	19.00	52.00	-149.00	8.00
-64.00	19.00	66.00	49.00	28.00	158.00	19.00
-45.00	9.00	27.00	50.00	10.00	98.00	2.00
-30.00	-10.00	-17.00	9.00	3.00	338.00	-14.00
-18.00	-12.00	-59.00	-6.00	4.00	75.00	-13.00
-10.00	-4.00	-68.00	17.00	28.00	107.00	0.00
0.00	-3.00	-142.00	66.00	20.00	-122.00	-11.00
4.00	-7.00	-86.00	24.00	22.00	-179.00	-10.00
17.00	-28.00	-103.00	-25.00	34.00	25.00	-2.00
23.00	-18.00	-44.00	-42.00	-3.00	49.00	2.00
21.00	0.00	84.00	-35.00	-10.00	-32.00	-3.00
27.00	65.00	165.00	-2.00	-3.00	6.00	9.00
24.00	189.00	188.00	61.00	26.00	-25.00	0.00
15.00	307.00	149.00	142.00	29.00	103.00	-20.00
10.00	334.00	34.00	146.00	6.00	421.00	-10.00
0.00	272.00	35.00	189.00	-32.00	491.00	-9.00
-1.00	149.00	132.00	238.00	9.00	96.00	12.00
-1.00	8.00	129.00	193.00	20.00	-667.00	-14.00
1.00	-104.00	101.00	151.00	29.00	-468.00	-24.00
3.00	-172.00	122.00	79.00	0.00	-103.00	19.00
-2.00	-164.00	-17.00	-54.00	-9.00	377.00	12.00
-6.00	-133.00	-84.00	-339.00	3.00	45.00	26.00
2.00	-63.00	-181.00	-412.00	18.00	-214.00	5.00
11.00	13.00	-269.00	-285.00	15.00	36.00	-13.00
17.00	29.00	-444.00	-281.00	6.00	108.00	1.00
18.00	-54.00	-337.00	-230.00	3.00	-15.00	14.00
14.00	-125.00	-73.00	-130.00	-18.00	132.00	-10.00
14.00	-171.00	80.00	-30.00	6.00	-157.00	-25.00
1.00	-222.00	200.00	-13.00	21.00	-141.00	-15.00
-7.00	-226.00	132.00	-17.00	9.00	-89.00	-11.00
-9.00	-187.00	179.00	12.00	11.00	-188.00	-12.00
-10.00	-119.00	223.00	76.00	0.00	137.00	-3.00
-4.00	-52.00	144.00	59.00	-14.00	118.00	26.00
11.00	21.00	26.00	-8.00	7.00	-20.00	35.00
4.00	61.00	-132.00	-33.00	19.00	-227.00	15.00
12.00	68.00	-178.00	7.00	26.00	-86.00	21.00
21.00	62.00	-122.00	52.00	33.00	405.00	-4.00
41.00	53.00	-3.00	95.00	29.00	318.00	-19.00
35.00	48.00	113.00	109.00	8.00	102.00	-16.00
15.00	49.00	74.00	92.00	2.00	-179.00	-1.00
-3.00	54.00	85.00	106.00	8.00	-277.00	-13.00
-11.00	68.00	47.00	106.00	13.00	-101.00	-7.00
-18.00	77.00	0.00	102.00	-5.00	98.00	0.00
-23.00	82.00	82.00	112.00	21.00	-1.00	-10.00
-24.00	92.00	197.00	167.00	20.00	29.00	0.00
-15.00	121.00	103.00	149.00	1.00	94.00	3.00
-14.00	161.00	-35.00	154.00	34.00	175.00	5.00
-18.00	157.00	-152.00	161.00	29.00	213.00	-1.00
-9.00	116.00	-160.00	136.00	39.00	350.00	-1.00
-10.00	78.00	-27.00	57.00	8.00	-299.00	-15.00
-3.00	9.00	191.00	44.00	0.00	-460.00	-7.00
-11.00	-26.00	202.00	-34.00	16.00	59.00	2.00
-10.00	-28.00	93.00	-54.00	7.00	353.00	5.00
-3.00	-7.00	36.00	-41.00	-24.00	803.00	0.00
6.00	2.00	-157.00	-159.00	-29.00	51.00	-27.00
-1.00	-14.00	-217.00	-248.00	13.00	-1031.00	-21.00
-10.00	-34.00	-101.00	-214.00	-34.00	-263.00	7.00
-9.00	-18.00	-108.00	-212.00	-46.00	217.00	-7.00
-5.00	-6.00	-92.00	-160.00	4.00	67.00	-21.00
-5.00	1.00	-39.00	-34.00	16.00	348.00	-9.00
-5.00	12.00	-18.00	-45.00	-21.00	179.00	-2.00
-6.00	21.00	33.00	-34.00	9.00	-385.00	7.00
-3.00	27.00	-35.00	-6.00	17.00	-268.00	9.00
0.00	38.00	-58.00	38.00	35.00	-236.00	-8.00
-6.00	46.00	-155.00	60.00	43.00	264.00	-18.00
10.00	56.00	-178.00	82.00	41.00	393.00	-8.00
8.00	56.00	-34.00	53.00	9.00	124.00	-21.00
9.00	28.00	-11.00	35.00	-19.00	-182.00	2.00
0.00	-2.00	124.00	63.00	-26.00	-87.00	25.00
0.00	14.00	202.00	65.00	5.00	-138.00	14.00
-5.00	34.00	206.00	77.00	7.00	-53.00	-4.00
-3.00	36.00	167.00	110.00	9.00	261.00	-21.00
3.00	33.00	223.00	199.00	7.00	37.00	7.00
1.00	21.00	197.00	239.00	30.00	-56.00	22.00
-4.00	10.00	101.00	188.00	37.00	105.00	9.00
-1.00	39.00	-61.00	81.00	6.00	86.00	9.00
0.00	36.00	-169.00	-38.00	39.00	-266.00	-21.00
-1.00	30.00	-248.00	-141.00	38.00	-171.00	-41.00
4.00	18.00	-144.00	-142.00	-11.00	100.00	-15.00
-4.00	-6.00	-41.00	-52.00	31.00	86.00	21.00
-15.00	-27.00	19.00	-32.00	11.00	77.00	16.00
-5.00	-30.00	33.00	-41.00	-6.00	41.00	0.00
-5.00	-32.00	6.00	-80.00	5.00	-74.00	5.00
-6.00	-13.00	-22.00	-129.00	-21.00	-19.00	13.00
-10.00	-8.00	51.00	-73.00	-13.00	163.00	-19.00
-13.00	-1.00	102.00	-43.00	-5.00	235.00	-16.00
-21.00	-1.00	34.00	-76.00	-1.00	-255.00	-18.00
-29.00	-4.00	21.00	-158.00	25.00	-198.00	-15.00
-30.00	21.00	-33.00	-213.00	30.00	-5.00	-11.00
-18.00	68.00	8.00	-137.00	24.00	30.00	-12.00
-17.00	100.00	-86.00	-78.00	21.00	-26.00	-8.00
-6.00	96.00	-114.00	-76.00	16.00	-8.00	-12.00
6.00	93.00	47.00	-47.00	12.00	208.00	-10.00
19.00	87.00	8.00	56.00	2.00	10.00	3.00
31.00	32.00	-131.00	110.00	0.00	-31.00	4.00
34.00	-25.00	-149.00	129.00	-4.00	-27.00	30.00
28.00	-84.00	-84.00	74.00	9.00	-47.00	44.00
27.00	-123.00	138.00	53.00	29.00	3.00	15.00
18.00	-119.00	273.00	75.00	14.00	9.00	5.00
-4.00	-98.00	150.00	32.00	12.00	10.00	2.00
-25.00	-71.00	-5.00	77.00	12.00	19.00	3.00
-35.00	-71.00	-8.00	101.00	1.00	4.00	3.00
-48.00	-43.00	41.00	101.00	14.00	65.00	-1.00
-50.00	-18.00	83.00	119.00	1.00	88.00	-2.00
-49.00	53.00	47.00	122.00	7.00	-26.00	-12.00
-38.00	155.00	-8.00	90.00	20.00	-172.00	-31.00
-33.00	215.00	-64.00	154.00	14.00	-53.00	-21.00
-19.00	207.00	-5.00	248.00	10.00	-1.00	-19.00
-6.00	149.00	-70.00	196.00	10.00	-10.00	13.00
3.00	94.00	-5.00	184.00	6.00	80.00	25.00
15.00	28.00	45.00	80.00	-5.00	31.00	11.00
24.00	-51.00	89.00	-194.00	2.00	251.00	8.00
32.00	-111.00	-65.00	-423.00	-3.00	208.00	2.00
41.00	-128.00	-111.00	-374.00	16.00	276.00	-4.00
38.00	-126.00	-103.00	-215.00	29.00	279.00	4.00
31.00	-118.00	-155.00	-116.00	26.00	-475.00	16.00
27.00	-86.00	-7.00	-49.00	17.00	-243.00	5.00
16.00	-69.00	95.00	-14.00	2.00	-171.00	-11.00
-6.00	-81.00	27.00	-35.00	-5.00	-176.00	-9.00
-19.00	-72.00	61.00	20.00	-5.00	-27.00	-1.00
-13.00	-51.00	37.00	34.00	19.00	-26.00	-6.00
-18.00	-16.00	-71.00	-2.00	24.00	-183.00	-7.00
-25.00	40.00	-75.00	5.00	21.00	48.00	-4.00
-23.00	72.00	18.00	115.00	18.00	197.00	-12.00
-16.00	86.00	73.00	173.00	14.00	-18.00	-2.00
-2.00	77.00	62.00	197.00	-1.00	-44.00	-13.00
1.00	47.00	54.00	136.00	-14.00	200.00	-14.00
4.00	40.00	1.00	68.00	-7.00	292.00	-21.00
5.00	60.00	-87.00	49.00	14.00	150.00	-12.00
12.00	91.00	-132.00	84.00	23.00	-358.00	13.00
16.00	94.00	-208.00	21.00	6.00	-84.00	19.00
17.00	74.00	-131.00	-48.00	-4.00	117.00	32.00
9.00	45.00	28.00	-76.00	3.00	64.00	-3.00
0.00	57.00	-10.00	-148.00	3.00	69.00	-14.00
2.00	84.00	74.00	-173.00	0.00	41.00	-4.00
3.00	133.00	103.00	-152.00	11.00	-93.00	3.00
5.00	134.00	-47.00	-89.00	-1.00	-169.00	15.00
-2.00	103.00	-72.00	33.00	12.00	-151.00	6.00
-4.00	58.00	81.00	229.00	31.00	76.00	-13.00
4.00	54.00	233.00	350.00	33.00	7.00	-23.00
5.00	113.00	459.00	270.00	23.00	142.00	-19.00
8.00	97.00	563.00	187.00	9.00	203.00	-6.00
14.00	30.00	253.00	-22.00	14.00	-73.00	2.00
19.00	-96.00	-263.00	-327.00	3.00	115.00	-12.00
10.00	-185.00	-318.00	-436.00	4.00	41.00	0.00
8.00	-227.00	-273.00	-424.00	-2.00	31.00	-6.00
13.00	-250.00	-295.00	-256.00	14.00	-377.00	-35.00
10.00	-236.00	-237.00	-77.00	21.00	-160.00	-29.00
13.00	-194.00	-238.00	-34.00	9.00	247.00	6.00
15.00	-113.00	-161.00	42.00	-21.00	88.00	21.00
13.00	-50.00	-65.00	101.00	-3.00	17.00	10.00
4.00	-15.00	75.00	107.00	12.00	-122.00	25.00
1.00	8.00	180.00	79.00	8.00	-27.00	19.00
-2.00	-1.00	167.00	33.00	6.00	73.00	-12.00
-5.00	-9.00	98.00	21.00	3.00	76.00	4.00
-5.00	5.00	104.00	30.00	13.00	83.00	16.00
6.00	15.00	35.00	22.00	18.00	64.00	-12.00
11.00	19.00	-41.00	38.00	14.00	25.00	9.00
15.00	37.00	-38.00	68.00	8.00	24.00	5.00
23.00	43.00	-40.00	93.00	17.00	31.00	5.00
16.00	49.00	-68.00	95.00	21.00	37.00	-3.00
8.00	71.00	-71.00	93.00	27.00	18.00	-7.00
-8.00	54.00	-62.00	96.00	19.00	31.00	8.00
-17.00	43.00	110.00	173.00	9.00	25.00	2.00
-31.00	85.00	245.00	180.00	20.00	-132.00	-6.00
-45.00	80.00	266.00	134.00	26.00	-197.00	-21.00
-62.00	87.00	284.00	88.00	29.00	70.00	-20.00
-60.00	68.00	69.00	47.00	2.00	123.00	-8.00
-57.00	58.00	-106.00	-85.00	-7.00	199.00	13.00
-57.00	47.00	-168.00	-148.00	-4.00	235.00	7.00
-56.00	26.00	-89.00	-160.00	8.00	-100.00	2.00
-48.00	24.00	43.00	-133.00	25.00	-348.00	-21.00
-38.00	11.00	68.00	-116.00	15.00	-39.00	-7.00
-22.00	5.00	81.00	-55.00	6.00	154.00	-1.00
-12.00	2.00	40.00	-2.00	-12.00	33.00	6.00
-8.00	15.00	29.00	44.00	-1.00	158.00	5.00
1.00	21.00	32.00	67.00	-4.00	226.00	-4.00
4.00	28.00	9.00	69.00	-1.00	127.00	-7.00
6.00	38.00	-1.00	54.00	17.00	115.00	8.00
6.00	47.00	-40.00	14.00	31.00	-386.00	-1.00
15.00	50.00	-49.00	7.00	44.00	-184.00	0.00
19.00	49.00	-115.00	-11.00	30.00	-473.00	-9.00
18.00	46.00	-190.00	-3.00	-23.00	189.00	-7.00
15.00	47.00	-199.00	6.00	-17.00	260.00	2.00
13.00	50.00	-186.00	-3.00	3.00	86.00	-14.00
14.00	44.00	-106.00	-16.00	31.00	-141.00	-35.00
20.00	38.00	37.00	-2.00	25.00	176.00	-15.00
9.00	19.00	16.00	35.00	-4.00	113.00	9.00
2.00	26.00	31.00	88.00	5.00	-384.00	24.00
3.00	51.00	17.00	117.00	-1.00	-36.00	-2.00
7.00	56.00	-12.00	112.00	11.00	95.00	-25.00
8.00	34.00	45.00	66.00	14.00	-14.00	-10.00
7.00	4.00	177.00	12.00	21.00	233.00	20.00
10.00	-13.00	145.00	-92.00	13.00	15.00	-2.00
3.00	-13.00	104.00	-129.00	-8.00	-66.00	3.00
-7.00	19.00	23.00	-94.00	-7.00	-102.00	14.00
-19.00	35.00	8.00	-15.00	10.00	-48.00	20.00
-19.00	20.00	-22.00	14.00	21.00	19.00	17.00
-17.00	-4.00	50.00	106.00	26.00	-22.00	-1.00
-20.00	-27.00	52.00	58.00	15.00	123.00	-16.00
-27.00	-40.00	55.00	-51.00	9.00	-12.00	-15.00
-22.00	-23.00	42.00	-98.00	10.00	36.00	-21.00
-4.00	19.00	-72.00	-87.00	36.00	-55.00	-18.00
-8.00	50.00	-88.00	11.00	23.00	30.00	5.00
-6.00	45.00	-87.00	73.00	28.00	80.00	18.00
12.00	42.00	34.00	171.00	24.00	71.00	15.00
37.00	28.00	-29.00	132.00	23.00	-208.00	6.00
56.00	15.00	-143.00	30.00	7.00	-48.00	8.00
59.00	-3.00	-78.00	-183.00	2.00	109.00	-20.00
45.00	-36.00	65.00	-276.00	-12.00	180.00	-12.00
13.00	-35.00	210.00	-211.00	2.00	-15.00	-15.00
3.00	7.00	-13.00	-121.00	8.00	-116.00	-15.00
-8.00	41.00	-217.00	-103.00	-4.00	-131.00	-44.00
-27.00	54.00	-236.00	-152.00	6.00	-162.00	-37.00
-32.00	42.00	-63.00	-50.00	17.00	16.00	-18.00
-27.00	-22.00	46.00	45.00	10.00	96.00	30.00
-21.00	-75.00	64.00	19.00	13.00	242.00	59.00
-27.00	-92.00	17.00	-11.00	14.00	-27.00	22.00
-27.00	-82.00	-6.00	11.00	29.00	-67.00	-15.00
-30.00	-34.00	-43.00	45.00	17.00	134.00	-11.00
-31.00	44.00	-51.00	69.00	2.00	118.00	-27.00
-36.00	136.00	-36.00	156.00	1.00	-82.00	-9.00
-36.00	182.00	-9.00	164.00	6.00	5.00	0.00
-35.00	160.00	95.00	164.00	20.00	-79.00	-4.00
-41.00	99.00	114.00	160.00	23.00	-27.00	40.00
-45.00	30.00	-46.00	-18.00	-5.00	350.00	62.00
-49.00	-38.00	-218.00	-124.00	-7.00	167.00	32.00
-51.00	-75.00	-206.00	-167.00	18.00	154.00	7.00
-51.00	-55.00	-83.00	-104.00	17.00	-591.00	-1.00
-48.00	-47.00	100.00	-81.00	3.00	-290.00	-4.00
-48.00	-38.00	268.00	45.00	-9.00	-52.00	-4.00
-46.00	-13.00	288.00	119.00	9.00	23.00	1.00
-44.00	5.00	223.00	164.00	26.00	98.00	7.00
-39.00	1.00	88.00	150.00	5.00	135.00	-19.00
-27.00	4.00	23.00	111.00	-5.00	180.00	-24.00
-17.00	-9.00	61.00	53.00	-3.00	351.00	-20.00
-4.00	-39.00	109.00	-9.00	17.00	390.00	-15.00
18.00	-52.00	-21.00	-123.00	7.00	-336.00	-12.00
45.00	-46.00	-104.00	-134.00	-11.00	-575.00	9.00
51.00	3.00	-82.00	-48.00	-9.00	-135.00	46.00
65.00	46.00	-100.00	81.00	-18.00	209.00	19.00
79.00	38.00	-207.00	133.00	15.00	224.00	-2.00
83.00	20.00	-173.00	99.00	36.00	161.00	-36.00
86.00	-9.00	-43.00	59.00	31.00	-382.00	-7.00
103.00	-18.00	148.00	49.00	7.00	-375.00	-9.00
106.00	-16.00	223.00	-8.00	18.00	-43.00	-18.00
117.00	-53.00	80.00	-96.00	0.00	139.00	-12.00
115.00	-79.00	18.00	-64.00	0.00	142.00	-24.00
123.00	-79.00	-32.00	-57.00	10.00	110.00	0.00
130.00	-77.00	7.00	-69.00	19.00	224.00	12.00
123.00	-81.00	60.00	-41.00	33.00	124.00	-26.00
101.00	-76.00	98.00	-8.00	28.00	-8.00	7.00
81.00	-33.00	60.00	-6.00	15.00	-23.00	9.00
64.00	33.00	48.00	22.00	30.00	-168.00	1.00
44.00	66.00	33.00	34.00	4.00	-25.00	-4.00
30.00	66.00	13.00	26.00	-3.00	153.00	-6.00
11.00	43.00	3.00	34.00	9.00	132.00	-8.00
-12.00	37.00	-34.00	36.00	22.00	33.00	-3.00
-39.00	39.00	-52.00	53.00	29.00	-111.00	-6.00
-56.00	39.00	-38.00	51.00	31.00	-145.00	0.00
-61.00	46.00	-77.00	41.00	22.00	-12.00	8.00
-58.00	82.00	86.00	82.00	19.00	99.00	1.00
-68.00	101.00	226.00	94.00	17.00	155.00	5.00
-73.00	77.00	179.00	162.00	76.00	44.00	14.00
-68.00	46.00	13.00	140.00	29.00	-96.00	5.00
-65.00	8.00	-167.00	35.00	-9.00	43.00	11.00
-60.00	-51.00	-51.00	21.00	-21.00	-251.00	14.00
-53.00	-63.00	58.00	-56.00	-31.00	-158.00	-8.00
-55.00	-52.00	29.00	-100.00	-32.00	59.00	-11.00
-49.00	5.00	-175.00	-107.00	-29.00	199.00	8.00
-44.00	60.00	-276.00	-102.00	-31.00	202.00	-5.00
-35.00	94.00	-229.00	-103.00	-1.00	-67.00	-3.00
-29.00	97.00	-125.00	-28.00	31.00	-75.00	-20.00
-26.00	70.00	-27.00	28.00	5.00	67.00	-19.00
-24.00	40.00	-21.00	-30.00	5.00	-56.00	8.00
-8.00	17.00	-78.00	-88.00	1.00	-105.00	-2.00
-11.00	15.00	-53.00	-5.00	15.00	52.00	5.00
-15.00	36.00	-23.00	55.00	31.00	299.00	-4.00
-28.00	44.00	-21.00	21.00	-28.00	282.00	-9.00
-32.00	36.00	56.00	73.00	-7.00	-170.00	-14.00
-43.00	60.00	251.00	128.00	12.00	-126.00	9.00
-52.00	71.00	181.00	41.00	15.00	92.00	3.00
-55.00	67.00	148.00	46.00	22.00	93.00	-1.00
-61.00	67.00	79.00	22.00	22.00	-100.00	0.00
-64.00	17.00	-106.00	-75.00	-5.00	60.00	11.00
-55.00	-23.00	-80.00	-145.00	4.00	270.00	-2.00
-38.00	-11.00	-23.00	-97.00	17.00	3.00	-11.00
-17.00	14.00	22.00	3.00	4.00	-140.00	4.00
0.00	44.00	113.00	17.00	30.00	-7.00	0.00
20.00	32.00	-16.00	-45.00	18.00	-74.00	-5.00
26.00	-32.00	-206.00	-137.00	19.00	-495.00	8.00
29.00	-60.00	-202.00	-153.00	-9.00	-84.00	9.00
24.00	-83.00	-208.00	-137.00	1.00	125.00	-7.00
19.00	-66.00	-2.00	-83.00	23.00	31.00	-6.00
11.00	-5.00	126.00	-55.00	37.00	99.00	-18.00
3.00	25.00	148.00	20.00	15.00	171.00	-9.00
-14.00	10.00	129.00	13.00	7.00	151.00	0.00
-29.00	-35.00	108.00	9.00	6.00	-50.00	1.00
-34.00	-57.00	77.00	46.00	15.00	-82.00	13.00
-32.00	-64.00	51.00	109.00	13.00	76.00	1.00
-33.00	-46.00	2.00	104.00	27.00	-107.00	-8.00
-28.00	5.00	50.00	58.00	30.00	-460.00	-2.00
-13.00	27.00	-39.00	11.00	-6.00	83.00	-8.00
-1.00	35.00	-31.00	9.00	19.00	-35.00	-21.00
5.00	39.00	-13.00	-2.00	17.00	133.00	-9.00
20.00	19.00	-88.00	3.00	1.00	73.00	8.00
22.00	-12.00	-60.00	33.00	6.00	67.00	21.00
15.00	-29.00	-30.00	92.00	10.00	61.00	26.00
22.00	-22.00	41.00	110.00	10.00	146.00	15.00
26.00	4.00	161.00	92.00	1.00	88.00	3.00
30.00	33.00	98.00	23.00	0.00	46.00	11.00
31.00	39.00	126.00	-13.00	8.00	-212.00	7.00
26.00	22.00	-34.00	-4.00	22.00	-172.00	-7.00
16.00	2.00	-277.00	-6.00	10.00	20.00	1.00
15.00	10.00	-271.00	31.00	15.00	193.00	-5.00
17.00	34.00	-249.00	-14.00	29.00	188.00	6.00
27.00	50.00	43.00	21.00	6.00	133.00	-2.00
38.00	67.00	119.00	-49.00	-17.00	-113.00	1.00
33.00	56.00	60.00	-78.00	7.00	35.00	-22.00
20.00	32.00	116.00	12.00	7.00	-192.00	-18.00
9.00	5.00	15.00	70.00	-30.00	-60.00	35.00
-4.00	-30.00	-21.00	134.00	-13.00	-183.00	20.00
-16.00	-43.00	99.00	190.00	26.00	229.00	-11.00
-26.00	-23.00	199.00	123.00	3.00	145.00	-10.00
-29.00	-5.00	337.00	62.00	-9.00	203.00	-1.00
-33.00	17.00	209.00	-69.00	6.00	-149.00	-7.00
-22.00	39.00	37.00	-124.00	32.00	-74.00	-2.00
-34.00	46.00	-89.00	-111.00	-8.00	-17.00	8.00
-25.00	51.00	-42.00	-95.00	20.00	-340.00	4.00
-20.00	51.00	-90.00	-124.00	10.00	-49.00	-15.00
-11.00	51.00	-144.00	-84.00	6.00	147.00	-22.00
-4.00	62.00	-143.00	-8.00	-5.00	136.00	-19.00
5.00	56.00	-162.00	70.00	0.00	223.00	2.00
21.00	63.00	-205.00	92.00	19.00	-80.00	-4.00
26.00	72.00	-201.00	0.00	15.00	-71.00	-23.00
24.00	50.00	-82.00	-85.00	-8.00	211.00	-25.00
39.00	60.00	-130.00	12.00	1.00	504.00	-24.00
43.00	87.00	-10.00	93.00	25.00	410.00	-37.00
47.00	66.00	27.00	80.00	52.00	3.00	-11.00
38.00	12.00	32.00	118.00	37.00	-509.00	27.00
32.00	-30.00	321.00	115.00	17.00	-57.00	34.00
19.00	-43.00	244.00	-26.00	-15.00	-132.00	12.00
-2.00	-44.00	197.00	22.00	2.00	-396.00	11.00
-10.00	-7.00	249.00	39.00	0.00	-342.00	19.00
-15.00	19.00	111.00	-56.00	12.00	-28.00	15.00
-20.00	20.00	-16.00	-113.00	0.00	93.00	14.00
-34.00	14.00	-11.00	-120.00	7.00	179.00	5.00
-42.00	-18.00	27.00	-124.00	20.00	161.00	-16.00
-38.00	-46.00	45.00	-56.00	17.00	138.00	-20.00
-40.00	-54.00	37.00	-16.00	22.00	-127.00	-4.00
-46.00	-51.00	0.00	3.00	8.00	106.00	1.00
-38.00	-14.00	-38.00	30.00	-9.00	28.00	-3.00
-38.00	56.00	-54.00	59.00	-4.00	-195.00	13.00
-31.00	148.00	-31.00	95.00	12.00	-102.00	20.00
-12.00	247.00	1.00	213.00	16.00	48.00	21.00
2.00	272.00	-114.00	205.00	-3.00	103.00	31.00
10.00	212.00	-223.00	81.00	13.00	-165.00	6.00
15.00	96.00	-232.00	16.00	38.00	-79.00	-16.00
27.00	-6.00	-89.00	-21.00	16.00	91.00	-12.00
23.00	-28.00	-37.00	-75.00	0.00	438.00	-10.00
16.00	-63.00	108.00	-153.00	4.00	175.00	-21.00
7.00	-121.00	169.00	-237.00	25.00	-59.00	6.00
-6.00	-163.00	-10.00	-176.00	2.00	-154.00	-3.00
-3.00	-175.00	-156.00	-109.00	24.00	-334.00	-15.00
10.00	-173.00	-233.00	-58.00	5.00	71.00	-1.00
13.00	-175.00	-191.00	-32.00	-6.00	122.00	-8.00
12.00	-163.00	-6.00	-19.00	5.00	61.00	-10.00
15.00	-126.00	143.00	12.00	14.00	61.00	-4.00
6.00	-85.00	185.00	7.00	7.00	3.00	12.00
4.00	-55.00	53.00	9.00	1.00	-32.00	10.00
6.00	-36.00	-5.00	63.00	6.00	74.00	-3.00
-2.00	-29.00	10.00	66.00	14.00	107.00	-16.00
-10.00	-15.00	8.00	59.00	6.00	-6.00	-23.00
-4.00	5.00	-112.00	54.00	9.00	-107.00	-8.00
1.00	36.00	-38.00	69.00	27.00	-165.00	12.00
5.00	102.00	-40.00	50.00	23.00	84.00	10.00
5.00	165.00	75.00	35.00	27.00	123.00	4.00
4.00	180.00	-26.00	66.00	32.00	109.00	9.00
-4.00	133.00	-47.00	122.00	12.00	198.00	6.00
-16.00	72.00	108.00	160.00	2.00	-43.00	6.00
-8.00	42.00	239.00	245.00	-6.00	-194.00	-4.00
1.00	31.00	291.00	265.00	0.00	-180.00	-19.00
-1.00	8.00	209.00	64.00	29.00	-123.00	-22.00
-5.00	-7.00	143.00	-95.00	10.00	171.00	2.00
-15.00	38.00	-36.00	-192.00	13.00	160.00	10.00
-10.00	43.00	-162.00	-152.00	7.00	107.00	0.00
3.00	45.00	-204.00	-63.00	11.00	92.00	3.00
23.00	4.00	-200.00	-15.00	-22.00	241.00	12.00
25.00	-44.00	13.00	49.00	-23.00	134.00	23.00
12.00	-77.00	31.00	-42.00	23.00	23.00	-6.00
1.00	-70.00	-51.00	-154.00	34.00	-458.00	3.00
4.00	-34.00	-143.00	-149.00	24.00	-97.00	-18.00
8.00	-15.00	-146.00	-93.00	16.00	-105.00	-12.00
12.00	5.00	-68.00	-70.00	6.00	9.00	-10.00
3.00	4.00	39.00	-91.00	9.00	37.00	-2.00
-9.00	-9.00	181.00	3.00	16.00	-43.00	-1.00
-28.00	-14.00	167.00	-4.00	13.00	46.00	-1.00
-39.00	-5.00	229.00	78.00	15.00	105.00	5.00
-35.00	10.00	197.00	144.00	10.00	214.00	3.00
-34.00	27.00	92.00	56.00	17.00	-106.00	-3.00
-33.00	36.00	-39.00	-26.00	35.00	-296.00	-10.00
-18.00	47.00	-53.00	11.00	18.00	-104.00	-37.00
-6.00	60.00	-24.00	49.00	9.00	-37.00	-35.00
7.00	49.00	-58.00	84.00	-20.00	14.00	-22.00
18.00	43.00	-71.00	20.00	-17.00	29.00	-1.00
29.00	40.00	40.00	-12.00	-4.00	153.00	50.00
24.00	49.00	18.00	-24.00	14.00	394.00	10.00
11.00	45.00	-128.00	-73.00	28.00	108.00	-5.00
9.00	47.00	-257.00	-41.00	9.00	-234.00	28.00
29.00	68.00	-214.00	-25.00	-3.00	-157.00	64.00
18.00	102.00	24.00	82.00	1.00	72.00	19.00
-7.00	104.00	26.00	93.00	-1.00	23.00	1.00
-13.00	102.00	175.00	86.00	19.00	4.00	-5.00
-15.00	108.00	41.00	-9.00	29.00	89.00	-6.00
-27.00	111.00	-188.00	-8.00	26.00	276.00	-18.00
-40.00	85.00	-249.00	-13.00	22.00	192.00	1.00
-54.00	43.00	-213.00	-10.00	-20.00	118.00	2.00
-61.00	-13.00	65.00	-14.00	11.00	-545.00	-5.00
-61.00	-38.00	335.00	-6.00	3.00	-356.00	-2.00
-61.00	-39.00	199.00	-19.00	-1.00	78.00	-3.00
-53.00	-54.00	-15.00	-12.00	0.00	143.00	-21.00
-39.00	-61.00	-57.00	50.00	3.00	58.00	-21.00
-19.00	-72.00	-2.00	27.00	9.00	44.00	-13.00
-18.00	-80.00	79.00	-6.00	9.00	33.00	-18.00
-6.00	-82.00	132.00	19.00	15.00	100.00	-12.00
1.00	-66.00	111.00	-26.00	16.00	210.00	-14.00
13.00	-39.00	116.00	-56.00	18.00	215.00	2.00
32.00	-32.00	-9.00	-92.00	44.00	-136.00	1.00
42.00	-32.00	-64.00	-56.00	43.00	-386.00	32.00
38.00	-26.00	-111.00	-15.00	29.00	-95.00	17.00
34.00	-25.00	-121.00	11.00	0.00	203.00	12.00
34.00	-22.00	-42.00	21.00	-14.00	-120.00	5.00
39.00	-24.00	-43.00	-16.00	-3.00	-92.00	8.00
38.00	-2.00	0.00	-7.00	4.00	-126.00	-10.00
33.00	7.00	77.00	31.00	20.00	34.00	1.00
27.00	9.00	133.00	63.00	16.00	63.00	8.00
15.00	12.00	169.00	84.00	20.00	-51.00	1.00
-2.00	17.00	205.00	115.00	34.00	-130.00	-7.00
-12.00	17.00	110.00	157.00	5.00	51.00	-15.00
-19.00	29.00	70.00	248.00	-3.00	237.00	13.00
-20.00	30.00	93.00	198.00	6.00	105.00	5.00
-22.00	22.00	122.00	79.00	25.00	-179.00	-14.00
-20.00	25.00	39.00	-86.00	-1.00	60.00	-11.00
-21.00	43.00	-171.00	-259.00	0.00	107.00	13.00
-30.00	44.00	-299.00	-299.00	32.00	32.00	-3.00
-18.00	37.00	-271.00	-223.00	6.00	-67.00	-16.00
-17.00	50.00	-243.00	-136.00	2.00	-80.00	11.00
-6.00	72.00	-183.00	-14.00	4.00	86.00	16.00
2.00	71.00	-26.00	85.00	8.00	89.00	-9.00
0.00	60.00	19.00	77.00	10.00	22.00	-10.00
-1.00	79.00	-26.00	55.00	5.00	-10.00	-4.00
0.00	115.00	8.00	94.00	3.00	-14.00	-13.00
-6.00	93.00	3.00	42.00	7.00	94.00	-5.00
4.00	48.00	15.00	71.00	9.00	107.00	-10.00
9.00	-9.00	47.00	-2.00	3.00	69.00	-3.00
12.00	-28.00	201.00	-33.00	6.00	137.00	7.00
10.00	-14.00	239.00	-17.00	4.00	166.00	13.00
13.00	-2.00	128.00	45.00	6.00	-260.00	6.00
12.00	-11.00	-18.00	83.00	4.00	-275.00	4.00
16.00	8.00	-52.00	70.00	16.00	-12.00	15.00
15.00	37.00	-177.00	28.00	6.00	94.00	9.00
15.00	26.00	-116.00	15.00	14.00	60.00	-8.00
21.00	20.00	-48.00	38.00	18.00	-130.00	3.00
23.00	-6.00	-62.00	-72.00	13.00	-48.00	2.00
33.00	-7.00	18.00	-119.00	20.00	14.00	-4.00
32.00	27.00	-24.00	-107.00	15.00	88.00	-14.00
40.00	75.00	-52.00	-58.00	17.00	4.00	-8.00
44.00	90.00	-181.00	-93.00	11.00	-33.00	-7.00
41.00	51.00	-221.00	-89.00	19.00	-181.00	3.00
24.00	10.00	-163.00	-2.00	40.00	-82.00	9.00
9.00	-8.00	-89.00	61.00	22.00	129.00	-1.00
-12.00	-34.00	-34.00	-23.00	18.00	-258.00	8.00
-19.00	-91.00	11.00	29.00	16.00	351.00	14.00
-25.00	-110.00	194.00	121.00	-7.00	158.00	1.00
-35.00	-114.00	298.00	79.00	-34.00	58.00	4.00
-30.00	-104.00	266.00	5.00	-27.00	-71.00	-2.00
-35.00	-41.00	198.00	11.00	6.00	-95.00	-23.00
-31.00	60.00	160.00	-17.00	9.00	83.00	-24.00
-26.00	87.00	136.00	9.00	22.00	78.00	2.00
-36.00	51.00	-43.00	-39.00	33.00	132.00	36.00
-46.00	-17.00	-88.00	-44.00	19.00	108.00	6.00
-32.00	-56.00	-29.00	19.00	20.00	136.00	-3.00
-33.00	-82.00	33.00	69.00	8.00	156.00	-18.00
-35.00	-87.00	-11.00	49.00	4.00	3.00	-21.00
-35.00	-48.00	-151.00	-44.00	3.00	-258.00	-19.00
-21.00	-1.00	-139.00	-23.00	0.00	-170.00	-10.00
-13.00	41.00	-116.00	35.00	7.00	29.00	-6.00
-4.00	46.00	56.00	34.00	4.00	66.00	5.00
-2.00	58.00	210.00	57.00	9.00	-30.00	18.00
0.00	108.00	348.00	128.00	-3.00	-17.00	10.00
-10.00	117.00	267.00	121.00	1.00	191.00	5.00
-23.00	60.00	178.00	45.00	0.00	114.00	3.00
-34.00	9.00	89.00	38.00	14.00	6.00	24.00
-25.00	-24.00	26.00	46.00	3.00	-46.00	44.00
-7.00	-62.00	27.00	11.00	13.00	-350.00	25.00
-2.00	-86.00	-7.00	-100.00	37.00	-292.00	-12.00
1.00	-78.00	-40.00	-85.00	12.00	281.00	-48.00
9.00	-53.00	-31.00	-44.00	-11.00	97.00	-28.00
17.00	-5.00	-16.00	-15.00	8.00	-330.00	-10.00
19.00	32.00	32.00	58.00	20.00	-146.00	-22.00
20.00	47.00	12.00	72.00	-6.00	164.00	14.00
20.00	69.00	-7.00	49.00	8.00	401.00	15.00
26.00	79.00	-41.00	3.00	5.00	496.00	18.00
29.00	61.00	-139.00	78.00	32.00	99.00	1.00
30.00	44.00	-230.00	54.00	29.00	-656.00	-2.00
19.00	28.00	-354.00	-45.00	24.00	-136.00	-12.00
20.00	24.00	-257.00	5.00	4.00	-41.00	-5.00
26.00	41.00	-121.00	31.00	-2.00	103.00	-8.00
18.00	22.00	-146.00	-143.00	-17.00	151.00	2.00
10.00	22.00	-67.00	-166.00	-10.00	110.00	-5.00
18.00	69.00	-54.00	-119.00	6.00	-186.00	-11.00
15.00	39.00	33.00	-93.00	21.00	-113.00	-19.00
14.00	4.00	69.00	-107.00	13.00	-20.00	17.00
10.00	-3.00	23.00	-99.00	17.00	45.00	18.00
4.00	-5.00	-5.00	-22.00	11.00	113.00	1.00
4.00	-1.00	13.00	34.00	9.00	-61.00	-2.00
-4.00	-11.00	11.00	74.00	15.00	-95.00	3.00
1.00	-21.00	34.00	116.00	14.00	-59.00	7.00
1.00	-10.00	21.00	44.00	15.00	-10.00	-12.00
0.00	9.00	-13.00	-11.00	22.00	212.00	-3.00
-3.00	24.00	-6.00	-26.00	12.00	146.00	2.00
-1.00	40.00	40.00	109.00	9.00	12.00	-6.00
1.00	58.00	114.00	296.00	19.00	17.00	-7.00
-6.00	48.00	89.00	215.00	22.00	1.00	-7.00
-4.00	45.00	61.00	128.00	19.00	17.00	2.00
-1.00	35.00	21.00	1.00	-4.00	193.00	16.00
-7.00	11.00	-69.00	-74.00	3.00	176.00	4.00
-5.00	11.00	12.00	-112.00	9.00	130.00	-4.00
-2.00	30.00	-46.00	-120.00	12.00	-266.00	-8.00
-5.00	48.00	-43.00	-108.00	8.00	-374.00	3.00
-4.00	34.00	17.00	-96.00	6.00	37.00	-9.00
-9.00	13.00	-37.00	-160.00	5.00	52.00	5.00
-12.00	15.00	-85.00	-170.00	-9.00	134.00	28.00
-9.00	35.00	-13.00	-86.00	2.00	-90.00	-5.00
-16.00	84.00	22.00	-20.00	14.00	-49.00	-19.00
-13.00	149.00	-55.00	15.00	0.00	-65.00	-15.00
-11.00	196.00	-126.00	-9.00	11.00	12.00	-16.00
-14.00	228.00	-43.00	-4.00	18.00	112.00	-3.00
-8.00	174.00	37.00	72.00	19.00	31.00	5.00
-2.00	103.00	224.00	152.00	30.00	51.00	29.00
-4.00	7.00	249.00	126.00	-7.00	104.00	35.00
-3.00	-104.00	116.00	50.00	-8.00	60.00	2.00
-2.00	-189.00	27.00	-26.00	0.00	-74.00	-3.00
2.00	-214.00	16.00	-33.00	13.00	-166.00	8.00
1.00	-220.00	110.00	17.00	1.00	21.00	10.00
0.00	-204.00	176.00	37.00	10.00	148.00	17.00
-6.00	-173.00	199.00	59.00	6.00	12.00	14.00
-12.00	-143.00	96.00	39.00	16.00	-66.00	-8.00
-14.00	-100.00	28.00	39.00	26.00	259.00	-12.00
-19.00	-72.00	-11.00	29.00	8.00	185.00	-18.00
-13.00	-53.00	-17.00	27.00	45.00	-389.00	-9.00
-14.00	-24.00	-28.00	19.00	-16.00	84.00	7.00
-21.00	7.00	6.00	21.00	8.00	26.00	15.00
-25.00	26.00	40.00	26.00	20.00	-129.00	-9.00
-27.00	58.00	-32.00	30.00	23.00	142.00	-13.00
-22.00	78.00	-115.00	26.00	15.00	-273.00	-20.00
-20.00	71.00	-306.00	-4.00	-10.00	-151.00	-5.00
-12.00	89.00	-297.00	32.00	8.00	71.00	-13.00
-3.00	105.00	-82.00	52.00	16.00	5.00	-11.00
-6.00	103.00	-6.00	57.00	-16.00	164.00	-3.00
-9.00	113.00	127.00	87.00	3.00	205.00	-10.00
2.00	84.00	110.00	115.00	13.00	242.00	3.00
12.00	41.00	-92.00	86.00	13.00	-252.00	12.00
24.00	52.00	-205.00	14.00	37.00	-86.00	-8.00
47.00	96.00	-85.00	33.00	25.00	83.00	-4.00
53.00	120.00	-26.00	-32.00	-19.00	-38.00	11.00
37.00	110.00	99.00	-62.00	-31.00	-167.00	0.00
34.00	73.00	46.00	-103.00	-9.00	-179.00	-12.00
32.00	14.00	57.00	-80.00	3.00	-2.00	1.00
20.00	-41.00	76.00	-102.00	24.00	76.00	-7.00
-3.00	-105.00	25.00	-108.00	12.00	165.00	12.00
-22.00	-123.00	59.00	-93.00	1.00	95.00	2.00
-36.00	-114.00	31.00	-69.00	5.00	-38.00	10.00
-50.00	-79.00	15.00	-12.00	12.00	0.00	3.00
-53.00	-64.00	-7.00	-9.00	13.00	8.00	-11.00
-60.00	-45.00	-47.00	4.00	21.00	22.00	-4.00
-60.00	-23.00	-33.00	67.00	27.00	14.00	-4.00
-56.00	-11.00	-14.00	122.00	26.00	124.00	-32.00
-38.00	-15.00	13.00	117.00	6.00	238.00	11.00
-26.00	-10.00	31.00	48.00	7.00	165.00	7.00
-23.00	9.00	66.00	80.00	23.00	-324.00	11.00
-17.00	12.00	70.00	83.00	23.00	-298.00	20.00
-4.00	17.00	-32.00	56.00	13.00	57.00	24.00
6.00	9.00	-78.00	-69.00	-3.00	46.00	23.00
18.00	9.00	-36.00	-87.00	3.00	249.00	21.00
14.00	13.00	2.00	-78.00	0.00	59.00	11.00
18.00	29.00	-1.00	-133.00	3.00	65.00	6.00
15.00	43.00	-106.00	-203.00	19.00	-139.00	9.00
5.00	53.00	-173.00	-168.00	9.00	-143.00	-20.00
0.00	73.00	-102.00	-127.00	-17.00	-238.00	-33.00
3.00	89.00	37.00	15.00	0.00	19.00	-23.00
10.00	68.00	65.00	200.00	0.00	-8.00	5.00
7.00	58.00	90.00	246.00	19.00	40.00	2.00
-7.00	91.00	168.00	303.00	33.00	205.00	-13.00
-19.00	65.00	313.00	259.00	21.00	119.00	-13.00
-26.00	27.00	271.00	110.00	20.00	64.00	-23.00
-21.00	-20.00	65.00	-52.00	20.00	60.00	-13.00
-17.00	-53.00	-71.00	-206.00	33.00	4.00	-5.00
-10.00	-50.00	-57.00	-214.00	18.00	-243.00	-5.00
-13.00	-25.00	-70.00	-175.00	23.00	-58.00	-7.00
-3.00	5.00	35.00	-48.00	2.00	224.00	-3.00
4.00	8.00	-49.00	-142.00	-8.00	192.00	0.00
8.00	2.00	-101.00	-162.00	7.00	-124.00	-10.00
10.00	7.00	-87.00	-127.00	19.00	-109.00	33.00
14.00	40.00	-32.00	-39.00	10.00	91.00	23.00
17.00	67.00	-13.00	-4.00	8.00	141.00	14.00
15.00	62.00	-34.00	52.00	10.00	121.00	10.00
16.00	30.00	-67.00	145.00	10.00	99.00	-5.00
8.00	5.00	-62.00	104.00	18.00	-151.00	-2.00
14.00	-11.00	-63.00	4.00	19.00	-10.00	3.00
17.00	12.00	-81.00	12.00	9.00	-7.00	6.00
11.00	101.00	-118.00	38.00	16.00	-161.00	-4.00
17.00	158.00	-181.00	-44.00	11.00	-397.00	1.00
19.00	144.00	-133.00	-20.00	6.00	-157.00	-18.00
18.00	89.00	-89.00	-23.00	6.00	393.00	-3.00
12.00	19.00	-6.00	24.00	-8.00	-31.00	25.00
3.00	-56.00	79.00	140.00	-21.00	-278.00	16.00
8.00	-46.00	170.00	217.00	14.00	8.00	-8.00
1.00	21.00	197.00	277.00	9.00	85.00	-10.00
5.00	103.00	114.00	288.00	0.00	170.00	-11.00
7.00	138.00	93.00	151.00	1.00	96.00	-9.00
10.00	136.00	-94.00	-24.00	-4.00	61.00	-6.00
7.00	58.00	-36.00	-141.00	0.00	23.00	-16.00
3.00	-60.00	217.00	-127.00	16.00	28.00	-21.00
-1.00	-141.00	215.00	-50.00	26.00	14.00	-1.00
-8.00	-175.00	199.00	7.00	22.00	5.00	-1.00
-8.00	-172.00	19.00	10.00	20.00	-1.00	2.00
-5.00	-133.00	-140.00	9.00	16.00	-10.00	33.00
-10.00	-83.00	-203.00	6.00	8.00	9.00	12.00
1.00	-39.00	-84.00	-61.00	14.00	62.00	-9.00
5.00	-9.00	66.00	-89.00	12.00	38.00	2.00
-2.00	-4.00	-5.00	-198.00	11.00	-86.00	5.00
-2.00	-7.00	96.00	-118.00	6.00	-45.00	30.00
-1.00	3.00	-16.00	-85.00	33.00	15.00	21.00
-2.00	40.00	-82.00	19.00	16.00	220.00	-2.00
0.00	106.00	-126.00	61.00	14.00	486.00	-16.00
-6.00	153.00	-110.00	19.00	-9.00	122.00	11.00
-4.00	180.00	-143.00	21.00	-4.00	-95.00	-2.00
4.00	177.00	-146.00	76.00	23.00	-500.00	-7.00
4.00	115.00	-95.00	66.00	21.00	-205.00	-10.00
0.00	34.00	108.00	84.00	5.00	108.00	14.00
-4.00	-5.00	213.00	101.00	8.00	33.00	5.00
-4.00	-52.00	224.00	67.00	7.00	12.00	-6.00
-4.00	-75.00	219.00	77.00	9.00	-100.00	-4.00
-11.00	-110.00	187.00	4.00	17.00	-82.00	-5.00
-10.00	-90.00	122.00	-36.00	12.00	3.00	-10.00
-3.00	-71.00	48.00	-75.00	7.00	-58.00	-14.00
3.00	-83.00	8.00	-33.00	2.00	-1.00	7.00
-2.00	-81.00	-26.00	-14.00	14.00	230.00	-4.00
-7.00	-89.00	-26.00	-49.00	10.00	69.00	-2.00
-14.00	-108.00	-30.00	-55.00	21.00	-170.00	5.00
-19.00	-103.00	-19.00	18.00	14.00	-224.00	12.00
-20.00	-79.00	-52.00	56.00	28.00	31.00	-2.00
-28.00	-26.00	-81.00	70.00	10.00	176.00	-5.00
-24.00	20.00	-20.00	164.00	6.00	195.00	-3.00
-18.00	41.00	81.00	218.00	0.00	6.00	-5.00
-11.00	26.00	54.00	57.00	-8.00	-22.00	10.00
-8.00	-2.00	-76.00	-118.00	1.00	13.00	0.00
-11.00	-9.00	-51.00	-107.00	5.00	47.00	-19.00
-9.00	-20.00	-191.00	-105.00	13.00	22.00	-10.00
-8.00	23.00	-183.00	-154.00	17.00	32.00	9.00
-7.00	64.00	-35.00	-63.00	28.00	-20.00	23.00
-4.00	72.00	124.00	1.00	28.00	-42.00	7.00
-4.00	68.00	140.00	-57.00	11.00	84.00	-8.00
-12.00	80.00	22.00	-158.00	9.00	243.00	-6.00
-5.00	73.00	33.00	-55.00	9.00	326.00	-6.00
5.00	125.00	-37.00	33.00	17.00	163.00	3.00
10.00	113.00	-174.00	-16.00	22.00	-505.00	3.00
22.00	57.00	-191.00	-54.00	13.00	-505.00	-1.00
21.00	16.00	-228.00	-100.00	-28.00	22.00	10.00
26.00	-9.00	-122.00	-108.00	-17.00	13.00	12.00
31.00	-31.00	-17.00	-68.00	-5.00	200.00	-12.00
34.00	-29.00	98.00	-41.00	12.00	73.00	-19.00
38.00	-1.00	90.00	21.00	25.00	288.00	4.00
29.00	28.00	-98.00	66.00	-14.00	33.00	28.00
18.00	74.00	-293.00	90.00	3.00	-682.00	14.00
4.00	83.00	-347.00	108.00	13.00	-174.00	6.00
-17.00	132.00	-138.00	174.00	27.00	80.00	-6.00
-29.00	191.00	160.00	273.00	36.00	256.00	-21.00
-33.00	185.00	312.00	240.00	22.00	268.00	0.00
-28.00	114.00	370.00	241.00	16.00	243.00	-4.00
-35.00	56.00	267.00	97.00	14.00	47.00	-7.00
-47.00	27.00	150.00	-130.00	9.00	-378.00	-4.00
-50.00	3.00	138.00	-237.00	-6.00	51.00	3.00
-43.00	-50.00	126.00	-149.00	-25.00	51.00	-7.00
-33.00	-88.00	149.00	13.00	-1.00	5.00	-11.00
-22.00	-137.00	166.00	32.00	35.00	-279.00	1.00
-11.00	-156.00	35.00	12.00	26.00	-176.00	-21.00
8.00	-139.00	104.00	76.00	26.00	244.00	-4.00
16.00	-103.00	157.00	89.00	20.00	468.00	18.00
21.00	-78.00	48.00	22.00	19.00	2.00	-21.00
28.00	-47.00	-55.00	-82.00	1.00	-466.00	9.00
28.00	-22.00	-114.00	-97.00	-10.00	-113.00	28.00
60.00	-6.00	-128.00	-20.00	-30.00	310.00	15.00
64.00	4.00	-117.00	16.00	-5.00	152.00	-6.00
54.00	11.00	-157.00	14.00	10.00	-40.00	-7.00
45.00	35.00	-174.00	22.00	7.00	245.00	22.00
31.00	62.00	-112.00	-18.00	24.00	-54.00	18.00
11.00	94.00	-75.00	-36.00	35.00	-94.00	-2.00
2.00	117.00	31.00	47.00	10.00	138.00	7.00
-9.00	101.00	96.00	144.00	23.00	-17.00	-4.00
-36.00	91.00	98.00	164.00	-2.00	-136.00	-6.00
-52.00	90.00	41.00	83.00	11.00	-67.00	1.00
-60.00	39.00	-28.00	-60.00	14.00	57.00	-1.00
-72.00	22.00	18.00	-107.00	7.00	54.00	-5.00
-74.00	9.00	100.00	-54.00	12.00	12.00	1.00
-81.00	-6.00	104.00	-40.00	11.00	-1.00	1.00
-84.00	-10.00	14.00	31.00	12.00	0.00	-10.00
-76.00	-27.00	-36.00	69.00	11.00	5.00	-13.00
-58.00	-39.00	-68.00	22.00	13.00	-10.00	-14.00
-42.00	-25.00	-94.00	47.00	7.00	2.00	-14.00
-23.00	-26.00	-19.00	64.00	3.00	-50.00	18.00
-7.00	-32.00	103.00	-29.00	12.00	-37.00	28.00
10.00	-25.00	62.00	-57.00	15.00	36.00	-4.00
19.00	-4.00	15.00	34.00	8.00	147.00	-16.00
28.00	23.00	41.00	92.00	28.00	-46.00	-27.00
33.00	28.00	-47.00	5.00	32.00	-159.00	-23.00
37.00	42.00	35.00	15.00	20.00	-13.00	-2.00
40.00	78.00	66.00	-6.00	-19.00	71.00	-4.00
39.00	66.00	-94.00	-199.00	-21.00	58.00	47.00
26.00	24.00	-191.00	-402.00	-2.00	-39.00	30.00
25.00	-3.00	-168.00	-359.00	11.00	-38.00	10.00
27.00	-26.00	-168.00	-194.00	16.00	15.00	5.00
43.00	-30.00	-135.00	-64.00	14.00	85.00	-3.00
52.00	-18.00	-70.00	8.00	18.00	-154.00	-5.00
51.00	4.00	-14.00	45.00	11.00	-47.00	-13.00
47.00	31.00	-14.00	55.00	5.00	36.00	-9.00
37.00	38.00	-19.00	63.00	10.00	11.00	-7.00
19.00	33.00	-25.00	65.00	14.00	-36.00	-1.00
2.00	31.00	6.00	72.00	20.00	120.00	-3.00
-7.00	30.00	-23.00	73.00	12.00	3.00	-21.00
-15.00	50.00	-180.00	82.00	13.00	-8.00	10.00
-18.00	66.00	-210.00	105.00	9.00	20.00	17.00
-24.00	71.00	-158.00	176.00	8.00	49.00	0.00
-23.00	69.00	20.00	182.00	2.00	-4.00	14.00
-23.00	53.00	268.00	248.00	9.00	55.00	7.00
-18.00	34.00	264.00	187.00	-11.00	222.00	11.00
-25.00	23.00	286.00	123.00	6.00	238.00	12.00
-26.00	11.00	183.00	40.00	18.00	-186.00	12.00
-16.00	12.00	157.00	-49.00	7.00	-217.00	-2.00
-7.00	-1.00	113.00	-169.00	31.00	-97.00	-6.00
-4.00	15.00	9.00	-292.00	-8.00	34.00	-1.00
-3.00	52.00	84.00	-149.00	-7.00	27.00	0.00
0.00	80.00	-83.00	-86.00	-5.00	138.00	5.00
-4.00	100.00	-223.00	-83.00	8.00	221.00	-6.00
-3.00	73.00	-119.00	-12.00	3.00	150.00	-6.00
11.00	9.00	-39.00	8.00	1.00	-492.00	6.00
16.00	-45.00	71.00	54.00	21.00	-271.00	10.00
9.00	-97.00	123.00	114.00	14.00	139.00	9.00
7.00	-132.00	49.00	45.00	28.00	147.00	0.00
5.00	-144.00	93.00	31.00	23.00	178.00	-8.00
-2.00	-145.00	99.00	20.00	-6.00	-153.00	-19.00
2.00	-104.00	61.00	27.00	-7.00	35.00	8.00
1.00	-68.00	49.00	-13.00	3.00	87.00	-9.00
7.00	-17.00	38.00	6.00	13.00	17.00	-1.00
22.00	38.00	-74.00	10.00	23.00	-62.00	-4.00
20.00	62.00	-251.00	-22.00	18.00	-7.00	-18.00
14.00	40.00	-210.00	-55.00	15.00	69.00	-16.00
7.00	13.00	-2.00	-34.00	-7.00	183.00	-13.00
-1.00	-4.00	72.00	18.00	-9.00	192.00	-7.00
-6.00	-6.00	143.00	44.00	23.00	-322.00	-6.00
-8.00	-6.00	29.00	20.00	34.00	121.00	12.00
-17.00	-3.00	-46.00	20.00	15.00	134.00	-19.00
-27.00	19.00	-21.00	25.00	1.00	-221.00	-22.00
-14.00	28.00	-108.00	-27.00	10.00	80.00	0.00
-14.00	29.00	-33.00	18.00	7.00	36.00	-7.00
-16.00	50.00	55.00	146.00	1.00	-159.00	18.00
-24.00	62.00	94.00	163.00	4.00	-23.00	9.00
-25.00	75.00	163.00	161.00	2.00	41.00	5.00
-13.00	69.00	145.00	101.00	3.00	29.00	-4.00
-8.00	30.00	45.00	9.00	4.00	-28.00	7.00
-5.00	-16.00	-144.00	-77.00	13.00	17.00	18.00
-9.00	-50.00	-242.00	-59.00	15.00	67.00	0.00
-3.00	-38.00	-198.00	-72.00	15.00	20.00	-10.00
3.00	-20.00	-40.00	-32.00	14.00	3.00	-6.00
2.00	-9.00	106.00	-13.00	14.00	0.00	-1.00
-9.00	-22.00	174.00	-65.00	15.00	-15.00	-1.00
-7.00	20.00	101.00	-107.00	13.00	51.00	6.00
6.00	74.00	130.00	-97.00	20.00	-13.00	-27.00
13.00	81.00	119.00	-74.00	22.00	14.00	-12.00
9.00	52.00	25.00	-32.00	19.00	73.00	16.00
8.00	12.00	-35.00	-53.00	36.00	-124.00	14.00
7.00	-15.00	-128.00	-50.00	7.00	12.00	25.00
13.00	-18.00	-133.00	-14.00	-18.00	31.00	17.00
15.00	2.00	-197.00	12.00	-10.00	-193.00	4.00
15.00	40.00	-163.00	61.00	13.00	-109.00	0.00
12.00	81.00	-109.00	24.00	-2.00	115.00	-21.00
6.00	98.00	-26.00	-8.00	-3.00	70.00	-18.00
-5.00	76.00	10.00	-3.00	0.00	-30.00	-16.00
-21.00	36.00	4.00	9.00	1.00	35.00	-10.00
-34.00	-1.00	81.00	42.00	5.00	104.00	-8.00
-32.00	-17.00	164.00	76.00	8.00	58.00	-10.00
-22.00	-10.00	159.00	125.00	5.00	104.00	-7.00
-18.00	-2.00	200.00	131.00	10.00	107.00	6.00
-22.00	-6.00	227.00	140.00	11.00	88.00	6.00
-20.00	-10.00	169.00	203.00	16.00	33.00	6.00
-13.00	-13.00	-4.00	280.00	21.00	-74.00	8.00
-13.00	-26.00	-107.00	260.00	11.00	-49.00	9.00
-17.00	-24.00	0.00	66.00	12.00	-95.00	12.00
-4.00	-42.00	19.00	-46.00	21.00	-102.00	11.00
2.00	-29.00	-1.00	-95.00	21.00	29.00	4.00
9.00	-5.00	-148.00	-259.00	-13.00	520.00	0.00
7.00	11.00	-329.00	-409.00	-15.00	238.00	-14.00
6.00	53.00	-244.00	-312.00	9.00	-62.00	-1.00
20.00	108.00	-63.00	-176.00	23.00	-460.00	2.00
25.00	107.00	-82.00	-156.00	6.00	-401.00	1.00
35.00	74.00	-83.00	-90.00	5.00	-334.00	4.00
37.00	36.00	-119.00	-45.00	4.00	-105.00	-4.00
37.00	36.00	16.00	30.00	34.00	118.00	-10.00
40.00	29.00	59.00	52.00	6.00	-18.00	-15.00
49.00	23.00	55.00	-9.00	6.00	45.00	-18.00
44.00	25.00	123.00	-28.00	7.00	321.00	-25.00
23.00	23.00	54.00	5.00	-9.00	213.00	-21.00
-2.00	-4.00	103.00	35.00	3.00	-3.00	7.00
-24.00	-38.00	204.00	64.00	29.00	-158.00	9.00
-45.00	-32.00	114.00	60.00	18.00	126.00	21.00
-53.00	-20.00	79.00	56.00	5.00	303.00	25.00
-52.00	-45.00	-57.00	98.00	7.00	252.00	15.00
-52.00	-47.00	-108.00	138.00	20.00	31.00	-3.00
-41.00	5.00	-17.00	103.00	19.00	-408.00	-5.00
-34.00	92.00	41.00	144.00	31.00	-210.00	-2.00
-36.00	113.00	83.00	248.00	14.00	167.00	16.00
-28.00	90.00	153.00	261.00	7.00	129.00	5.00
-22.00	39.00	75.00	115.00	14.00	101.00	0.00
-26.00	-27.00	-71.00	11.00	9.00	-19.00	-7.00
-26.00	-100.00	-162.00	-183.00	-3.00	10.00	11.00
-13.00	-118.00	-140.00	-234.00	-4.00	-182.00	29.00
-8.00	-75.00	-83.00	-174.00	11.00	-79.00	46.00
3.00	39.00	2.00	-75.00	8.00	0.00	19.00
8.00	204.00	37.00	-11.00	9.00	162.00	1.00
12.00	245.00	-134.00	-52.00	8.00	106.00	-20.00
32.00	167.00	-112.00	-58.00	33.00	-132.00	-2.00
39.00	10.00	-8.00	-43.00	18.00	321.00	-5.00
39.00	-141.00	-12.00	-64.00	34.00	35.00	-10.00
29.00	-216.00	-81.00	-115.00	4.00	-9.00	-16.00
15.00	-225.00	-75.00	-13.00	-30.00	87.00	-6.00
3.00	-180.00	-72.00	80.00	12.00	-469.00	11.00
2.00	-88.00	60.00	70.00	29.00	-400.00	-12.00
7.00	-40.00	104.00	-2.00	11.00	2.00	-15.00
-5.00	-26.00	163.00	-28.00	-30.00	248.00	-6.00
-15.00	-16.00	197.00	-3.00	-4.00	308.00	-6.00
-19.00	-37.00	207.00	34.00	12.00	-362.00	3.00
-27.00	-45.00	160.00	-17.00	-18.00	57.00	-1.00
-27.00	-21.00	58.00	-43.00	-1.00	73.00	-3.00
-22.00	7.00	19.00	-16.00	14.00	-75.00	-1.00
-13.00	27.00	6.00	8.00	21.00	-106.00	-5.00
0.00	38.00	-9.00	44.00	27.00	-71.00	-4.00
11.00	41.00	-18.00	45.00	28.00	100.00	-2.00
26.00	80.00	-11.00	84.00	20.00	183.00	2.00
29.00	114.00	32.00	99.00	13.00	117.00	10.00
31.00	115.00	-38.00	21.00	12.00	97.00	-5.00
28.00	101.00	-2.00	-24.00	20.00	-77.00	-11.00
21.00	85.00	69.00	-30.00	3.00	142.00	11.00
18.00	58.00	-77.00	7.00	22.00	60.00	4.00
15.00	35.00	-152.00	91.00	29.00	2.00	-12.00
-6.00	36.00	-246.00	101.00	18.00	-41.00	-27.00
-32.00	41.00	-101.00	93.00	32.00	-83.00	-2.00
-31.00	40.00	112.00	66.00	7.00	-26.00	-11.00
-28.00	49.00	82.00	65.00	-2.00	29.00	-13.00
-25.00	59.00	34.00	16.00	8.00	-3.00	-1.00
-34.00	53.00	92.00	-8.00	8.00	11.00	2.00
-34.00	22.00	35.00	-64.00	5.00	-14.00	-5.00
-21.00	6.00	0.00	-63.00	15.00	-51.00	-3.00
-16.00	-5.00	-1.00	-10.00	24.00	32.00	-12.00
-9.00	-3.00	3.00	20.00	22.00	75.00	-12.00
-4.00	-1.00	-39.00	6.00	9.00	89.00	20.00
2.00	6.00	-102.00	24.00	5.00	62.00	-3.00
6.00	18.00	-43.00	69.00	5.00	-74.00	-21.00
11.00	32.00	85.00	87.00	8.00	55.00	-16.00
12.00	38.00	-3.00	21.00	0.00	96.00	8.00
16.00	39.00	-179.00	-25.00	7.00	35.00	42.00
15.00	33.00	-188.00	-93.00	21.00	-134.00	23.00
12.00	18.00	-61.00	-84.00	12.00	12.00	-9.00
12.00	24.00	128.00	18.00	12.00	124.00	-3.00
11.00	23.00	213.00	108.00	3.00	127.00	18.00
0.00	2.00	114.00	123.00	6.00	169.00	2.00
-3.00	-18.00	13.00	90.00	21.00	223.00	-5.00
-8.00	-17.00	-31.00	-30.00	17.00	342.00	-11.00
4.00	5.00	-15.00	-10.00	24.00	-166.00	5.00
20.00	21.00	6.00	-105.00	27.00	-766.00	6.00
14.00	33.00	118.00	-237.00	-1.00	-385.00	27.00
11.00	25.00	76.00	-262.00	-26.00	56.00	7.00
9.00	16.00	74.00	-145.00	-1.00	109.00	-27.00
6.00	23.00	-28.00	-50.00	1.00	49.00	-40.00
-4.00	30.00	-323.00	3.00	11.00	50.00	-19.00
-14.00	39.00	-351.00	41.00	17.00	104.00	14.00
-2.00	60.00	-307.00	145.00	20.00	129.00	-11.00
2.00	85.00	-364.00	124.00	19.00	45.00	11.00
6.00	61.00	-179.00	63.00	9.00	-188.00	-2.00
9.00	8.00	124.00	163.00	31.00	-362.00	-15.00
12.00	-5.00	230.00	171.00	16.00	-98.00	3.00
11.00	1.00	232.00	127.00	-6.00	138.00	12.00
0.00	-2.00	249.00	52.00	5.00	231.00	2.00
-11.00	5.00	272.00	-28.00	13.00	227.00	10.00
-15.00	-8.00	127.00	-173.00	-9.00	95.00	6.00
-19.00	-33.00	-25.00	-326.00	-2.00	166.00	-1.00
-26.00	-62.00	17.00	-201.00	42.00	-145.00	-13.00
-35.00	-73.00	-65.00	-63.00	27.00	-212.00	-12.00
-31.00	-56.00	-48.00	68.00	-24.00	54.00	5.00
-26.00	-22.00	159.00	160.00	-10.00	-116.00	-9.00
-16.00	-26.00	354.00	175.00	8.00	236.00	-3.00
-2.00	-27.00	289.00	103.00	10.00	327.00	-5.00
4.00	4.00	189.00	62.00	11.00	42.00	-6.00
5.00	-11.00	-82.00	-73.00	8.00	-318.00	13.00
3.00	-33.00	-124.00	-131.00	7.00	-171.00	4.00
5.00	-34.00	-99.00	-92.00	9.00	-112.00	16.00
15.00	-8.00	-101.00	-64.00	16.00	-52.00	11.00
11.00	78.00	-132.00	-91.00	26.00	-14.00	-5.00
1.00	241.00	-39.00	-3.00	20.00	-116.00	-6.00
-1.00	328.00	-5.00	42.00	-1.00	-8.00	-6.00
-8.00	293.00	69.00	-17.00	12.00	168.00	-11.00
-8.00	148.00	74.00	45.00	17.00	41.00	-4.00
-6.00	-17.00	55.00	202.00	12.00	52.00	1.00
0.00	-147.00	-286.00	210.00	4.00	43.00	-1.00
2.00	-264.00	-410.00	112.00	3.00	3.00	-1.00
-6.00	-288.00	-306.00	-64.00	0.00	-38.00	-13.00
-6.00	-223.00	-50.00	-119.00	0.00	-44.00	-3.00
-9.00	-99.00	76.00	-123.00	6.00	65.00	18.00
-15.00	40.00	-32.00	-143.00	13.00	79.00	8.00
-15.00	46.00	-67.00	-104.00	10.00	-91.00	-3.00
-8.00	41.00	20.00	-82.00	18.00	-120.00	-5.00
-1.00	-4.00	181.00	-14.00	20.00	91.00	-1.00
2.00	-43.00	209.00	-55.00	-3.00	131.00	-14.00
7.00	-43.00	203.00	-29.00	15.00	63.00	6.00
10.00	-38.00	201.00	7.00	11.00	55.00	-6.00
14.00	-17.00	62.00	18.00	12.00	4.00	-27.00
20.00	28.00	-21.00	12.00	14.00	14.00	-9.00
15.00	38.00	-32.00	64.00	10.00	20.00	-12.00
4.00	35.00	48.00	162.00	8.00	12.00	-6.00
-4.00	28.00	-41.00	208.00	12.00	6.00	18.00
-10.00	18.00	-44.00	195.00	14.00	39.00	-7.00
-11.00	3.00	-78.00	30.00	10.00	47.00	-1.00
-21.00	-18.00	-65.00	-21.00	5.00	0.00	32.00
-21.00	-13.00	81.00	15.00	9.00	-29.00	22.00
-27.00	11.00	132.00	5.00	11.00	-12.00	-10.00
-30.00	24.00	128.00	-17.00	19.00	56.00	-4.00
-28.00	27.00	52.00	-41.00	25.00	7.00	5.00
-16.00	47.00	-1.00	-12.00	18.00	-2.00	-11.00
-5.00	80.00	10.00	11.00	7.00	-138.00	-3.00
4.00	84.00	-11.00	-9.00	13.00	-65.00	-3.00
13.00	61.00	-69.00	-11.00	-5.00	86.00	1.00
17.00	65.00	16.00	50.00	0.00	121.00	-2.00
15.00	100.00	13.00	129.00	8.00	182.00	-5.00
13.00	171.00	-22.00	188.00	6.00	149.00	-4.00
5.00	187.00	-21.00	170.00	2.00	-23.00	-2.00
10.00	150.00	-26.00	139.00	21.00	-392.00	-9.00
10.00	93.00	-21.00	88.00	19.00	-24.00	-4.00
9.00	21.00	-77.00	22.00	8.00	134.00	-6.00
5.00	-43.00	-45.00	-77.00	22.00	90.00	-13.00
7.00	-74.00	-30.00	-115.00	15.00	234.00	-7.00
3.00	-69.00	-84.00	-94.00	-1.00	-95.00	-8.00
2.00	-50.00	79.00	-27.00	4.00	-204.00	-8.00
-4.00	-40.00	161.00	26.00	2.00	5.00	-18.00
-8.00	-55.00	166.00	19.00	0.00	40.00	2.00
-14.00	-77.00	54.00	-60.00	1.00	-62.00	-2.00
-23.00	-95.00	-95.00	-170.00	35.00	162.00	-14.00
-30.00	-104.00	-293.00	-226.00	3.00	-114.00	4.00
-31.00	-75.00	-210.00	-125.00	-10.00	-32.00	19.00
-43.00	-18.00	-112.00	-112.00	-15.00	-32.00	1.00
-52.00	28.00	20.00	-74.00	3.00	-29.00	43.00
-60.00	74.00	39.00	-17.00	8.00	-101.00	24.00
-64.00	128.00	36.00	1.00	-4.00	115.00	7.00
-64.00	172.00	-97.00	-16.00	-3.00	123.00	-7.00
-55.00	186.00	3.00	48.00	2.00	308.00	3.00
-49.00	152.00	93.00	73.00	-4.00	464.00	12.00
-44.00	100.00	66.00	74.00	4.00	90.00	11.00
-31.00	25.00	-8.00	58.00	31.00	-631.00	28.00
-23.00	-49.00	-1.00	39.00	26.00	-581.00	-4.00
-22.00	-56.00	83.00	14.00	17.00	68.00	-8.00
-20.00	20.00	149.00	4.00	5.00	118.00	-9.00
-11.00	88.00	-16.00	36.00	-1.00	92.00	-23.00
4.00	108.00	-350.00	57.00	7.00	58.00	-24.00
13.00	61.00	-403.00	88.00	13.00	24.00	5.00
17.00	-4.00	-38.00	124.00	16.00	20.00	-5.00
20.00	-96.00	235.00	90.00	11.00	-6.00	-5.00
35.00	-165.00	160.00	-33.00	16.00	22.00	-5.00
44.00	-212.00	57.00	-102.00	11.00	-21.00	1.00
44.00	-178.00	-117.00	-123.00	22.00	-68.00	-5.00
56.00	-128.00	-88.00	-120.00	15.00	56.00	-7.00
76.00	-74.00	149.00	-54.00	13.00	119.00	-3.00
87.00	-60.00	192.00	-19.00	12.00	36.00	2.00
100.00	-45.00	135.00	50.00	16.00	100.00	-7.00
111.00	-36.00	15.00	-52.00	17.00	78.00	-19.00
113.00	-38.00	-73.00	-94.00	12.00	47.00	4.00
104.00	-37.00	36.00	-53.00	40.00	-230.00	3.00
97.00	-15.00	109.00	2.00	44.00	-347.00	3.00
92.00	1.00	139.00	22.00	15.00	-66.00	29.00
70.00	13.00	45.00	-58.00	-18.00	107.00	27.00
45.00	24.00	1.00	-35.00	8.00	3.00	-20.00
32.00	28.00	-58.00	-9.00	8.00	82.00	-12.00
33.00	39.00	-141.00	29.00	-7.00	71.00	-1.00
38.00	44.00	-131.00	61.00	-2.00	-13.00	-11.00
33.00	48.00	-98.00	105.00	7.00	2.00	-10.00
13.00	56.00	0.00	128.00	10.00	122.00	-1.00
2.00	78.00	95.00	167.00	10.00	27.00	1.00
-12.00	108.00	136.00	213.00	6.00	39.00	-6.00
-13.00	136.00	121.00	212.00	6.00	44.00	-5.00
-30.00	112.00	39.00	85.00	6.00	59.00	-3.00
-40.00	95.00	121.00	0.00	7.00	-29.00	0.00
-50.00	52.00	108.00	-96.00	10.00	-8.00	-2.00
-58.00	15.00	61.00	-88.00	15.00	58.00	-15.00
-59.00	-12.00	13.00	-104.00	8.00	15.00	-22.00
-61.00	-36.00	-4.00	-109.00	9.00	-25.00	1.00
-69.00	-23.00	61.00	16.00	20.00	-32.00	2.00
-70.00	-1.00	40.00	68.00	2.00	46.00	-1.00
-60.00	12.00	-4.00	123.00	2.00	77.00	3.00
-51.00	27.00	-9.00	112.00	16.00	33.00	3.00
-46.00	59.00	-18.00	19.00	6.00	-103.00	5.00
-41.00	88.00	-68.00	-39.00	-2.00	-10.00	11.00
-36.00	90.00	-33.00	-28.00	0.00	71.00	31.00
-43.00	96.00	-108.00	-8.00	3.00	20.00	5.00
-39.00	128.00	-98.00	34.00	1.00	12.00	-11.00
-33.00	148.00	-57.00	12.00	13.00	-16.00	-7.00
-24.00	139.00	-20.00	3.00	25.00	-90.00	-12.00
-9.00	96.00	-41.00	73.00	6.00	145.00	-9.00
-1.00	39.00	-184.00	17.00	6.00	163.00	-5.00
-14.00	-44.00	-282.00	-84.00	1.00	13.00	6.00
-36.00	-106.00	-98.00	-143.00	21.00	-124.00	1.00
-45.00	-120.00	114.00	-119.00	36.00	-450.00	-18.00
-23.00	-117.00	104.00	-27.00	31.00	90.00	-10.00
-10.00	-119.00	35.00	-38.00	-9.00	221.00	6.00
-7.00	-121.00	70.00	-150.00	-21.00	204.00	5.00
-13.00	-112.00	86.00	-141.00	6.00	309.00	-1.00
-18.00	-94.00	58.00	-77.00	5.00	-215.00	0.00
-19.00	-78.00	70.00	-44.00	1.00	-537.00	-10.00
-13.00	-61.00	29.00	-49.00	9.00	29.00	-7.00
-5.00	-32.00	-32.00	-66.00	16.00	129.00	-6.00
1.00	-14.00	1.00	-84.00	4.00	53.00	-11.00
4.00	-4.00	22.00	-38.00	-2.00	88.00	-10.00
11.00	14.00	59.00	128.00	23.00	10.00	-9.00
16.00	29.00	89.00	199.00	26.00	-121.00	11.00
13.00	50.00	37.00	164.00	16.00	76.00	-5.00
21.00	107.00	69.00	104.00	9.00	39.00	-9.00
15.00	169.00	67.00	-28.00	2.00	17.00	-7.00
12.00	213.00	-61.00	-83.00	5.00	53.00	2.00
17.00	207.00	-262.00	-72.00	8.00	72.00	17.00
15.00	135.00	-395.00	-59.00	14.00	107.00	1.00
7.00	51.00	-362.00	-53.00	21.00	-69.00	-10.00
1.00	-43.00	-270.00	-92.00	19.00	-127.00	-4.00
0.00	-92.00	10.00	-40.00	6.00	43.00	-15.00
-2.00	-131.00	178.00	23.00	12.00	308.00	-18.00
-10.00	-126.00	166.00	54.00	-6.00	148.00	15.00
-8.00	-95.00	192.00	126.00	6.00	-37.00	16.00
3.00	-31.00	156.00	121.00	9.00	-347.00	11.00
20.00	18.00	141.00	114.00	-1.00	7.00	11.00
23.00	31.00	115.00	88.00	12.00	52.00	-5.00
26.00	20.00	44.00	93.00	28.00	-97.00	-6.00
18.00	20.00	-4.00	99.00	28.00	77.00	-13.00
15.00	44.00	3.00	112.00	-2.00	39.00	15.00
10.00	62.00	-52.00	73.00	6.00	-110.00	-1.00
3.00	66.00	-57.00	115.00	-7.00	157.00	4.00
-10.00	57.00	56.00	179.00	7.00	-162.00	3.00
-22.00	47.00	47.00	138.00	25.00	-86.00	1.00
-26.00	51.00	89.00	59.00	9.00	137.00	19.00
-30.00	53.00	156.00	25.00	0.00	155.00	-5.00
-33.00	49.00	129.00	2.00	8.00	33.00	-13.00
-29.00	39.00	83.00	-168.00	14.00	-214.00	-11.00
-45.00	26.00	24.00	-215.00	18.00	-137.00	-21.00
-53.00	-13.00	1.00	-177.00	14.00	233.00	-10.00
-42.00	-27.00	1.00	-147.00	-1.00	259.00	-10.00
