
	31.00	52.00	213.00	-768.00	30.00	4.00	25.00
	46.00	74.00	342.00	-668.00	25.00	23.00	-3.00
	57.00	46.00	249.00	-34.00	-15.00	35.00	-53.00
	30.00	10.00	-39.00	583.00	-44.00	20.00	-13.00
	-30.00	-38.00	-241.00	884.00	15.00	58.00	-7.00
	-79.00	-60.00	-154.00	757.00	31.00	80.00	10.00
	-55.00	-45.00	129.00	248.00	83.00	106.00	30.00
	1.00	-11.00	449.00	-128.00	0.00	-31.00	57.00
	16.00	26.00	591.00	-325.00	-34.00	-75.00	-5.00
	-7.00	20.00	340.00	-319.00	-7.00	-71.00	20.00
	-25.00	29.00	75.00	-320.00	18.00	-17.00	40.00
	-6.00	57.00	-261.00	-306.00	55.00	53.00	42.00
	-16.00	36.00	-505.00	20.00	78.00	54.00	-34.00
	-22.00	18.00	-321.00	-90.00	129.00	104.00	-85.00
	-16.00	14.00	176.00	-289.00	68.00	47.00	-187.00
	-5.00	20.00	517.00	-370.00	32.00	-28.00	-121.00
	-4.00	16.00	641.00	-157.00	-9.00	-77.00	-28.00
	-25.00	15.00	524.00	-2.00	-12.00	-61.00	-20.00
	-36.00	4.00	316.00	42.00	69.00	48.00	91.00
	-32.00	-12.00	-103.00	129.00	52.00	53.00	109.00
	-24.00	-17.00	-251.00	136.00	35.00	40.00	51.00
	-18.00	-8.00	-96.00	10.00	53.00	25.00	107.00
	-5.00	3.00	-30.00	-70.00	26.00	-12.00	36.00
	13.00	3.00	195.00	-295.00	17.00	22.00	36.00
	17.00	6.00	211.00	-300.00	20.00	66.00	84.00
	12.00	23.00	198.00	-299.00	22.00	60.00	19.00
	27.00	36.00	304.00	-363.00	0.00	40.00	7.00
	20.00	33.00	-130.00	-34.00	-47.00	-41.00	1.00
	7.00	15.00	-398.00	290.00	-24.00	56.00	-20.00
	22.00	26.00	-424.00	275.00	16.00	92.00	14.00
	24.00	19.00	-460.00	274.00	-9.00	-73.00	9.00
	27.00	8.00	-458.00	104.00	-13.00	-89.00	-33.00
	25.00	18.00	-183.00	-105.00	4.00	-82.00	-47.00
	22.00	22.00	240.00	-156.00	16.00	0.00	9.00
	11.00	17.00	436.00	-80.00	47.00	137.00	-12.00
	8.00	7.00	519.00	-231.00	-51.00	-175.00	-50.00
	16.00	-11.00	281.00	-5.00	-160.00	-304.00	-63.00
	19.00	-5.00	-11.00	125.00	-68.00	-148.00	-13.00
	26.00	19.00	-206.00	42.00	-13.00	-21.00	0.00
	26.00	48.00	-764.00	344.00	-9.00	58.00	-20.00
	2.00	40.00	-688.00	568.00	-4.00	8.00	-69.00
	-7.00	30.00	-428.00	332.00	10.00	24.00	-48.00
	-22.00	25.00	-170.00	73.00	12.00	82.00	-23.00
	-29.00	19.00	123.00	-50.00	0.00	54.00	-23.00
	-46.00	3.00	207.00	-76.00	-5.00	33.00	-11.00
	-64.00	-10.00	305.00	-59.00	26.00	42.00	3.00
	-65.00	2.00	394.00	-36.00	31.00	55.00	16.00
	-79.00	-1.00	366.00	-7.00	42.00	37.00	-5.00
	-72.00	3.00	428.00	-67.00	31.00	-9.00	-22.00
	-68.00	4.00	316.00	18.00	35.00	-23.00	-8.00
	-51.00	11.00	251.00	-16.00	24.00	5.00	5.00
	-16.00	27.00	341.00	-229.00	2.00	7.00	47.00
	-8.00	33.00	134.00	-70.00	35.00	234.00	121.00
	-13.00	21.00	76.00	110.00	24.00	50.00	61.00
	-4.00	28.00	-114.00	125.00	-21.00	-56.00	79.00
	-1.00	6.00	-626.00	412.00	44.00	48.00	11.00
	0.00	-10.00	-761.00	547.00	54.00	101.00	-37.00
	5.00	2.00	-448.00	306.00	43.00	67.00	-13.00
	20.00	16.00	-225.00	94.00	-2.00	-56.00	-71.00
	27.00	27.00	-98.00	-121.00	-8.00	-41.00	-25.00
	26.00	22.00	311.00	-329.00	47.00	83.00	22.00
	19.00	16.00	446.00	-362.00	44.00	61.00	-32.00
	26.00	24.00	370.00	-361.00	6.00	-15.00	-38.00
	25.00	20.00	296.00	-328.00	6.00	10.00	-21.00
	20.00	13.00	63.00	-159.00	35.00	10.00	46.00
	29.00	20.00	50.00	-100.00	36.00	20.00	73.00
	34.00	22.00	-103.00	12.00	10.00	-10.00	84.00
	24.00	22.00	-347.00	234.00	-5.00	-5.00	60.00
	1.00	0.00	-283.00	211.00	30.00	77.00	23.00
	2.00	-7.00	-240.00	11.00	67.00	91.00	-35.00
	0.00	14.00	-159.00	-30.00	32.00	-30.00	-43.00
	-1.00	21.00	26.00	-115.00	-5.00	-99.00	-26.00
	11.00	14.00	-74.00	-46.00	-4.00	-36.00	-13.00
	10.00	23.00	-134.00	-30.00	14.00	51.00	-26.00
	5.00	26.00	54.00	-92.00	51.00	118.00	27.00
	-10.00	22.00	407.00	-125.00	55.00	116.00	31.00
	-1.00	22.00	474.00	-264.00	-4.00	-47.00	-32.00
	13.00	11.00	260.00	-405.00	-73.00	-156.00	-78.00
	9.00	-12.00	230.00	-496.00	-96.00	-251.00	-86.00
	24.00	2.00	414.00	-620.00	-70.00	-190.00	-51.00
	42.00	34.00	409.00	-467.00	-60.00	-163.00	-10.00
	54.00	72.00	-4.00	-180.00	-49.00	-114.00	4.00
	43.00	42.00	-487.00	258.00	-10.00	-2.00	-19.00
	4.00	-1.00	-587.00	945.00	84.00	158.00	13.00
	-23.00	-29.00	-803.00	1218.00	84.00	95.00	-49.00
	-27.00	-29.00	-787.00	1193.00	43.00	92.00	-42.00
	-15.00	-35.00	-217.00	962.00	34.00	82.00	19.00
	8.00	-18.00	-186.00	522.00	-18.00	1.00	38.00
	6.00	-13.00	-330.00	237.00	-43.00	58.00	10.00
	-10.00	8.00	-289.00	-86.00	15.00	41.00	-29.00
	-13.00	27.00	75.00	-260.00	16.00	11.00	8.00
	8.00	37.00	637.00	-592.00	-36.00	-22.00	-49.00
	35.00	37.00	482.00	-686.00	-76.00	-36.00	-57.00
	41.00	61.00	321.00	-460.00	-91.00	-27.00	-83.00
	20.00	62.00	56.00	-226.00	-72.00	-34.00	-101.00
	-19.00	14.00	-75.00	-20.00	-10.00	71.00	-62.00
	-71.00	-17.00	129.00	17.00	67.00	135.00	-39.00
	-83.00	-12.00	139.00	174.00	89.00	147.00	-8.00
	-63.00	-6.00	-90.00	196.00	72.00	100.00	34.00
	-18.00	1.00	-139.00	9.00	78.00	64.00	86.00
	17.00	-11.00	14.00	-383.00	78.00	7.00	78.00
	30.00	15.00	429.00	-414.00	35.00	-30.00	102.00
	37.00	33.00	495.00	-528.00	12.00	-44.00	146.00
	20.00	45.00	176.00	-180.00	5.00	-21.00	130.00
	-19.00	37.00	-270.00	357.00	40.00	48.00	91.00
	-14.00	36.00	-456.00	617.00	64.00	81.00	37.00
	-19.00	29.00	-707.00	715.00	167.00	98.00	-26.00
	-21.00	7.00	-523.00	730.00	201.00	72.00	-13.00
	-20.00	9.00	74.00	283.00	140.00	-21.00	11.00
	-18.00	23.00	429.00	-56.00	49.00	-39.00	42.00
	-16.00	24.00	108.00	151.00	30.00	-39.00	41.00
	-23.00	8.00	-103.00	301.00	-2.00	-55.00	7.00
	12.00	3.00	107.00	69.00	-15.00	-41.00	8.00
	51.00	14.00	204.00	-110.00	1.00	-36.00	-16.00
	59.00	-2.00	-60.00	-115.00	-12.00	-48.00	13.00
	18.00	-29.00	-130.00	32.00	10.00	-6.00	73.00
	23.00	-26.00	0.00	59.00	58.00	15.00	129.00
	15.00	-18.00	115.00	-30.00	77.00	49.00	180.00
	-9.00	-28.00	231.00	-131.00	39.00	31.00	149.00
	-21.00	-32.00	280.00	-152.00	22.00	35.00	133.00
	-31.00	-28.00	130.00	-119.00	-13.00	26.00	87.00
	-34.00	-11.00	47.00	-116.00	0.00	24.00	92.00
	-44.00	-13.00	258.00	-234.00	-29.00	11.00	57.00
	-46.00	-10.00	313.00	-274.00	-30.00	0.00	54.00
	-53.00	5.00	283.00	-184.00	-47.00	-23.00	2.00
	-74.00	13.00	205.00	-64.00	-51.00	-17.00	-126.00
	-75.00	19.00	110.00	-98.00	-41.00	-6.00	-147.00
	-57.00	23.00	-58.00	-32.00	-36.00	-4.00	-93.00
	-30.00	8.00	35.00	-99.00	-39.00	4.00	-82.00
	-15.00	6.00	151.00	-135.00	-15.00	34.00	-111.00
	-5.00	5.00	204.00	-125.00	-4.00	63.00	-63.00
	5.00	4.00	90.00	-64.00	-33.00	24.00	-29.00
	15.00	14.00	6.00	-51.00	-17.00	60.00	-57.00
	16.00	14.00	65.00	-189.00	18.00	87.00	-87.00
	13.00	15.00	59.00	-261.00	-10.00	-89.00	-58.00
	16.00	33.00	-19.00	-191.00	-51.00	-144.00	-49.00
	29.00	36.00	-86.00	-80.00	-23.00	-77.00	-33.00
	29.00	25.00	-175.00	80.00	-15.00	-28.00	-66.00
	33.00	24.00	-182.00	161.00	-11.00	13.00	-45.00
	40.00	21.00	-161.00	165.00	17.00	92.00	-70.00
	40.00	20.00	-158.00	135.00	-32.00	-22.00	-48.00
	37.00	18.00	-132.00	39.00	-42.00	-96.00	-15.00
	35.00	36.00	-89.00	-35.00	-30.00	-32.00	-48.00
	38.00	33.00	-61.00	-63.00	1.00	16.00	-28.00
	31.00	34.00	-77.00	-35.00	4.00	-24.00	10.00
	28.00	28.00	-94.00	-12.00	14.00	11.00	-50.00
	25.00	26.00	-100.00	-62.00	35.00	76.00	-43.00
	26.00	28.00	-82.00	-50.00	25.00	71.00	-38.00
	29.00	17.00	24.00	-50.00	24.00	128.00	-22.00
	31.00	16.00	151.00	-74.00	-14.00	-94.00	5.00
	25.00	19.00	70.00	41.00	-47.00	-156.00	2.00
	10.00	27.00	-27.00	101.00	-1.00	-42.00	-13.00
	7.00	35.00	-112.00	-7.00	11.00	7.00	-2.00
	10.00	27.00	-179.00	56.00	35.00	40.00	19.00
	7.00	21.00	40.00	-98.00	53.00	149.00	41.00
	15.00	19.00	463.00	-353.00	59.00	150.00	-19.00
	17.00	16.00	603.00	-408.00	4.00	-25.00	3.00
	22.00	38.00	212.00	-353.00	-53.00	-143.00	40.00
	30.00	64.00	-296.00	-86.00	-37.00	-107.00	44.00
	-1.00	15.00	-796.00	444.00	62.00	108.00	41.00
	-11.00	-15.00	-991.00	634.00	82.00	109.00	90.00
	-18.00	-11.00	-462.00	495.00	29.00	-48.00	30.00
	-19.00	-4.00	-43.00	261.00	-23.00	-76.00	3.00
	-8.00	13.00	200.00	25.00	10.00	4.00	8.00
	3.00	26.00	312.00	-140.00	3.00	-14.00	-15.00
	1.00	41.00	288.00	-115.00	-2.00	53.00	-51.00
	-16.00	28.00	-114.00	148.00	37.00	89.00	-66.00
	-22.00	-3.00	-411.00	289.00	48.00	57.00	24.00
	-26.00	-28.00	-250.00	265.00	10.00	11.00	62.00
	-35.00	-14.00	-118.00	172.00	-22.00	33.00	37.00
	-24.00	18.00	104.00	-206.00	6.00	-8.00	28.00
	-12.00	25.00	145.00	-278.00	9.00	-3.00	46.00
	-16.00	18.00	39.00	-163.00	34.00	-14.00	22.00
	-10.00	24.00	157.00	-163.00	25.00	-21.00	-27.00
	-18.00	32.00	-53.00	406.00	53.00	59.00	-97.00
	-42.00	10.00	-36.00	844.00	51.00	130.00	-56.00
	-49.00	-13.00	173.00	595.00	56.00	148.00	-35.00
	-42.00	-20.00	17.00	219.00	60.00	99.00	38.00
	-18.00	-4.00	239.00	-194.00	52.00	39.00	21.00
	10.00	12.00	443.00	-361.00	33.00	-86.00	2.00
	24.00	15.00	333.00	-302.00	36.00	-61.00	38.00
	22.00	16.00	248.00	-191.00	51.00	-9.00	16.00
	6.00	23.00	-227.00	21.00	43.00	91.00	-35.00
	0.00	18.00	-602.00	343.00	13.00	215.00	-15.00
	13.00	12.00	-388.00	309.00	-51.00	49.00	-9.00
	12.00	16.00	-175.00	142.00	-87.00	-183.00	2.00
	4.00	28.00	146.00	-65.00	-64.00	-150.00	57.00
	-11.00	20.00	302.00	-195.00	-33.00	-70.00	11.00
	4.00	34.00	413.00	-413.00	14.00	0.00	-27.00
	21.00	63.00	311.00	-398.00	23.00	15.00	22.00
	3.00	44.00	-74.00	-191.00	-31.00	-41.00	34.00
	-5.00	48.00	-363.00	-143.00	-52.00	-76.00	24.00
	8.00	46.00	-326.00	-53.00	-41.00	-30.00	-50.00
	22.00	36.00	-341.00	103.00	-24.00	21.00	-50.00
	20.00	18.00	-264.00	284.00	27.00	40.00	15.00
	-25.00	-5.00	118.00	549.00	116.00	147.00	31.00
	-53.00	6.00	164.00	299.00	134.00	103.00	-4.00
	-21.00	28.00	87.00	-158.00	50.00	-21.00	-16.00
	-18.00	40.00	290.00	-318.00	18.00	-29.00	2.00
	-25.00	44.00	250.00	-353.00	-4.00	-49.00	14.00
	-41.00	64.00	96.00	-216.00	-9.00	42.00	37.00
	-73.00	48.00	-203.00	283.00	-12.00	4.00	4.00
	-112.00	24.00	-454.00	603.00	6.00	86.00	-28.00
	-136.00	27.00	-152.00	444.00	41.00	42.00	-47.00
	-140.00	6.00	436.00	24.00	36.00	-18.00	-39.00
	-128.00	11.00	750.00	-307.00	19.00	-4.00	-46.00
	-117.00	13.00	563.00	-317.00	1.00	1.00	-28.00
	-90.00	23.00	284.00	-341.00	4.00	26.00	-19.00
	-77.00	42.00	-273.00	-76.00	-11.00	1.00	-9.00
	-77.00	19.00	-321.00	112.00	-30.00	-23.00	-25.00
	-57.00	29.00	-225.00	-58.00	-30.00	-11.00	-41.00
	-51.00	10.00	-249.00	97.00	5.00	36.00	15.00
	-69.00	-47.00	-342.00	442.00	70.00	87.00	54.00
	-64.00	-67.00	-36.00	319.00	85.00	89.00	66.00
	-25.00	-60.00	144.00	-9.00	45.00	23.00	59.00
	14.00	-52.00	127.00	-185.00	39.00	23.00	58.00
	44.00	-41.00	31.00	-173.00	24.00	22.00	61.00
	67.00	-37.00	-29.00	-76.00	9.00	23.00	62.00
	73.00	-36.00	14.00	30.00	8.00	40.00	57.00
	95.00	-37.00	50.00	43.00	7.00	13.00	71.00
	118.00	-44.00	26.00	2.00	5.00	-18.00	74.00
	139.00	-42.00	27.00	-49.00	-3.00	-40.00	54.00
	156.00	-47.00	57.00	-126.00	-16.00	-29.00	-7.00
	166.00	-47.00	87.00	-175.00	-11.00	-12.00	-9.00
	161.00	-42.00	85.00	-218.00	-15.00	7.00	15.00
	160.00	-40.00	90.00	-240.00	14.00	-9.00	53.00
	154.00	-42.00	38.00	-219.00	33.00	-6.00	38.00
	151.00	-38.00	84.00	-154.00	18.00	14.00	64.00
	145.00	-25.00	176.00	-139.00	43.00	43.00	25.00
	131.00	-9.00	266.00	-196.00	57.00	4.00	9.00
	117.00	1.00	144.00	-170.00	23.00	-9.00	4.00
	107.00	7.00	85.00	-165.00	-65.00	-120.00	-18.00
	101.00	17.00	32.00	-79.00	-78.00	-113.00	-70.00
	93.00	27.00	-105.00	68.00	-12.00	-20.00	-6.00
	67.00	17.00	112.00	89.00	25.00	37.00	-4.00
	48.00	5.00	96.00	52.00	15.00	19.00	-36.00
	24.00	4.00	-129.00	108.00	12.00	-21.00	-34.00
	21.00	26.00	-71.00	74.00	2.00	-52.00	-34.00
	20.00	48.00	-66.00	72.00	37.00	53.00	-12.00
	13.00	53.00	160.00	-79.00	35.00	116.00	-84.00
	10.00	48.00	215.00	-146.00	-33.00	-95.00	-126.00
	10.00	61.00	63.00	-90.00	-56.00	-202.00	-52.00
	10.00	63.00	155.00	-308.00	-45.00	-168.00	-9.00
	-8.00	46.00	-49.00	17.00	-36.00	-109.00	33.00
	-25.00	9.00	-252.00	438.00	37.00	56.00	22.00
	-31.00	-3.00	-477.00	586.00	36.00	121.00	24.00
	-30.00	4.00	-666.00	553.00	49.00	179.00	45.00
	-46.00	36.00	-466.00	279.00	42.00	25.00	88.00
	-46.00	35.00	-164.00	-113.00	19.00	-37.00	95.00
	-42.00	39.00	-18.00	-300.00	1.00	-42.00	-32.00
	-34.00	50.00	213.00	-464.00	-10.00	-39.00	-95.00
	-36.00	58.00	264.00	-343.00	4.00	48.00	-86.00
	-49.00	60.00	148.00	-31.00	36.00	60.00	-31.00
	-80.00	35.00	-250.00	501.00	70.00	108.00	-53.00
	-97.00	15.00	-361.00	727.00	17.00	30.00	-92.00
	-102.00	16.00	-221.00	568.00	-25.00	-76.00	-70.00
	-96.00	25.00	-145.00	412.00	18.00	55.00	-6.00
	-93.00	39.00	53.00	172.00	46.00	191.00	-4.00
	-83.00	41.00	227.00	-35.00	49.00	122.00	58.00
	-74.00	30.00	253.00	-130.00	62.00	101.00	19.00
	-54.00	33.00	227.00	-196.00	37.00	-2.00	-31.00
	-33.00	36.00	-112.00	-37.00	-68.00	-132.00	-57.00
	-44.00	25.00	-369.00	128.00	-55.00	-138.00	-8.00
	-45.00	37.00	-258.00	-62.00	-23.00	-47.00	51.00
	-34.00	30.00	112.00	-175.00	6.00	-23.00	102.00
	-26.00	33.00	378.00	-266.00	25.00	22.00	56.00
	-11.00	29.00	296.00	-240.00	23.00	52.00	2.00
	1.00	13.00	83.00	95.00	15.00	60.00	14.00
	-18.00	1.00	-396.00	244.00	9.00	52.00	24.00
	-31.00	7.00	-380.00	170.00	24.00	27.00	-3.00
	-1.00	0.00	-18.00	-181.00	-7.00	-3.00	-42.00
	9.00	-7.00	314.00	-236.00	23.00	-16.00	46.00
	14.00	-11.00	377.00	-296.00	30.00	3.00	-2.00
	23.00	3.00	376.00	-310.00	-23.00	-24.00	81.00
	25.00	9.00	152.00	-117.00	-3.00	43.00	73.00
	11.00	-7.00	-465.00	263.00	14.00	20.00	7.00
	-21.00	-15.00	-405.00	311.00	5.00	-11.00	-67.00
	-56.00	-25.00	93.00	129.00	49.00	78.00	-83.00
	-48.00	-1.00	189.00	7.00	83.00	114.00	-103.00
	-48.00	7.00	165.00	24.00	70.00	109.00	-7.00
	-52.00	2.00	347.00	-273.00	28.00	12.00	33.00
	-45.00	12.00	486.00	-554.00	7.00	-17.00	77.00
	-39.00	36.00	441.00	-626.00	-55.00	-40.00	30.00
	-38.00	40.00	215.00	-279.00	-72.00	-50.00	-3.00
	-45.00	34.00	-354.00	315.00	-6.00	40.00	-120.00
	-43.00	6.00	-621.00	627.00	20.00	134.00	-99.00
	-34.00	-15.00	-500.00	546.00	71.00	130.00	-78.00
	-18.00	-9.00	-272.00	271.00	31.00	34.00	-51.00
	4.00	20.00	-102.00	-116.00	-14.00	-24.00	-21.00
	32.00	53.00	-82.00	-194.00	-6.00	-54.00	20.00
	65.00	70.00	-148.00	-110.00	-38.00	-75.00	8.00
	79.00	73.00	-323.00	69.00	-35.00	-86.00	-8.00
	65.00	31.00	-258.00	266.00	62.00	6.00	59.00
	40.00	15.00	120.00	292.00	70.00	3.00	65.00
	30.00	7.00	206.00	327.00	54.00	39.00	68.00
	12.00	12.00	210.00	150.00	72.00	86.00	74.00
	-17.00	16.00	-34.00	260.00	92.00	96.00	73.00
	-32.00	5.00	119.00	282.00	45.00	14.00	-33.00
	-24.00	9.00	329.00	36.00	9.00	-19.00	-48.00
	-19.00	10.00	336.00	-125.00	-3.00	-27.00	-19.00
	-17.00	-3.00	242.00	-177.00	11.00	4.00	-2.00
	-19.00	-7.00	113.00	-147.00	48.00	96.00	33.00
	-21.00	-10.00	-153.00	-71.00	22.00	60.00	32.00
	-16.00	-2.00	-260.00	-20.00	-1.00	12.00	17.00
	3.00	2.00	-47.00	-79.00	32.00	5.00	47.00
	27.00	8.00	185.00	-186.00	61.00	-3.00	15.00
	56.00	12.00	260.00	-172.00	18.00	32.00	-23.00
	54.00	-5.00	229.00	-70.00	-11.00	17.00	56.00
	37.00	-31.00	203.00	-2.00	4.00	115.00	108.00
	23.00	-23.00	51.00	64.00	-32.00	-54.00	53.00
	15.00	-13.00	78.00	-57.00	-111.00	-380.00	-12.00
	20.00	-3.00	136.00	-106.00	-57.00	-172.00	-49.00
	12.00	-8.00	133.00	-142.00	-15.00	-50.00	-144.00
	3.00	0.00	36.00	-161.00	0.00	-1.00	-71.00
	-7.00	10.00	43.00	-169.00	12.00	24.00	-3.00
	-8.00	26.00	33.00	-128.00	13.00	37.00	-15.00
	0.00	35.00	-91.00	-46.00	-34.00	-79.00	-7.00
	3.00	17.00	24.00	-195.00	-64.00	-107.00	3.00
	-3.00	10.00	318.00	-371.00	-7.00	-25.00	29.00
	-3.00	22.00	339.00	-416.00	31.00	73.00	18.00
	12.00	18.00	246.00	-288.00	21.00	69.00	-44.00
	13.00	8.00	-78.00	74.00	40.00	84.00	-43.00
	18.00	3.00	-533.00	430.00	-9.00	52.00	-54.00
	13.00	11.00	-906.00	564.00	-3.00	0.00	-23.00
	8.00	3.00	-969.00	664.00	19.00	20.00	-33.00
	4.00	-9.00	-600.00	483.00	30.00	42.00	-43.00
	1.00	11.00	-199.00	229.00	28.00	19.00	-11.00
	3.00	17.00	32.00	31.00	22.00	1.00	25.00
	8.00	23.00	50.00	-20.00	12.00	-5.00	32.00
	0.00	33.00	10.00	-154.00	12.00	14.00	34.00
	-5.00	39.00	57.00	-266.00	10.00	37.00	35.00
	6.00	42.00	96.00	-270.00	-18.00	-28.00	25.00
	7.00	37.00	174.00	-237.00	-15.00	-12.00	-21.00
	25.00	44.00	182.00	-252.00	19.00	44.00	28.00
	28.00	24.00	-36.00	-55.00	26.00	35.00	33.00
	15.00	-2.00	-170.00	184.00	15.00	22.00	41.00
	-4.00	3.00	-49.00	123.00	45.00	61.00	62.00
	-7.00	15.00	111.00	47.00	59.00	66.00	49.00
	-4.00	0.00	149.00	78.00	18.00	20.00	-28.00
	4.00	-10.00	213.00	-80.00	-15.00	-44.00	-44.00
	6.00	3.00	287.00	-231.00	-10.00	-27.00	-52.00
	8.00	13.00	507.00	-339.00	17.00	17.00	-25.00
	14.00	17.00	609.00	-297.00	3.00	-35.00	-2.00
	14.00	10.00	507.00	-159.00	8.00	-30.00	33.00
	16.00	10.00	408.00	-107.00	36.00	47.00	23.00
	24.00	13.00	172.00	85.00	16.00	32.00	6.00
	24.00	18.00	-197.00	283.00	-27.00	-80.00	2.00
	13.00	52.00	-838.00	372.00	-30.00	-32.00	20.00
	19.00	15.00	-1162.00	770.00	3.00	56.00	32.00
	-6.00	-20.00	-1071.00	824.00	33.00	71.00	-3.00
	-42.00	-9.00	-396.00	627.00	63.00	76.00	10.00
	-42.00	-8.00	45.00	354.00	66.00	58.00	-46.00
	-17.00	3.00	105.00	138.00	40.00	44.00	-64.00
	-9.00	8.00	188.00	-73.00	31.00	31.00	-61.00
	-8.00	12.00	85.00	-61.00	50.00	54.00	-56.00
	-7.00	2.00	33.00	23.00	43.00	82.00	-14.00
	-3.00	6.00	201.00	-68.00	39.00	46.00	22.00
	-10.00	11.00	256.00	-206.00	15.00	-17.00	21.00
	-12.00	29.00	316.00	-325.00	-3.00	-14.00	39.00
	-10.00	36.00	375.00	-405.00	-28.00	-46.00	28.00
	-16.00	39.00	395.00	-304.00	-40.00	-55.00	-3.00
	4.00	27.00	67.00	-121.00	-46.00	-44.00	-22.00
	19.00	16.00	-112.00	-34.00	-38.00	-38.00	-47.00
	1.00	-4.00	-232.00	-98.00	-7.00	-31.00	-33.00
	12.00	-2.00	-164.00	-437.00	11.00	-40.00	-14.00
	29.00	30.00	-84.00	-510.00	34.00	9.00	-19.00
	37.00	25.00	-55.00	-271.00	29.00	30.00	-11.00
	47.00	54.00	41.00	-122.00	15.00	46.00	-34.00
	22.00	24.00	-102.00	388.00	13.00	31.00	-43.00
	-16.00	-25.00	129.00	509.00	16.00	44.00	16.00
	-47.00	-23.00	412.00	311.00	9.00	10.00	47.00
	-34.00	2.00	343.00	-62.00	-28.00	-3.00	5.00
	-20.00	15.00	229.00	-270.00	-43.00	-16.00	2.00
	-22.00	29.00	286.00	-351.00	-82.00	-71.00	16.00
	-11.00	43.00	-40.00	-184.00	-79.00	-57.00	39.00
	-28.00	35.00	-155.00	174.00	-33.00	41.00	58.00
	-39.00	21.00	-367.00	376.00	18.00	92.00	62.00
	-35.00	14.00	-408.00	521.00	59.00	77.00	73.00
	-50.00	1.00	-240.00	498.00	75.00	93.00	60.00
	-54.00	-15.00	-160.00	465.00	104.00	93.00	36.00
	-51.00	-13.00	-40.00	325.00	93.00	45.00	-2.00
	-41.00	3.00	88.00	48.00	67.00	-10.00	-13.00
	-28.00	22.00	152.00	-221.00	33.00	-23.00	0.00
	-8.00	31.00	135.00	-470.00	36.00	-11.00	-4.00
	9.00	61.00	-45.00	-524.00	19.00	-42.00	-2.00
	6.00	93.00	-160.00	-349.00	19.00	-28.00	-18.00
	13.00	114.00	171.00	-298.00	50.00	36.00	-33.00
	42.00	109.00	255.00	-126.00	25.00	1.00	-45.00
	38.00	57.00	65.00	261.00	7.00	-15.00	-20.00
	28.00	-4.00	-157.00	430.00	3.00	-53.00	-43.00
	22.00	-11.00	-42.00	81.00	-27.00	-103.00	-2.00
	26.00	-22.00	117.00	-119.00	-68.00	-68.00	2.00
	27.00	-43.00	206.00	-138.00	-12.00	30.00	21.00
	12.00	-53.00	92.00	-191.00	68.00	132.00	31.00
	-19.00	-63.00	-13.00	-54.00	115.00	204.00	46.00
	-26.00	-54.00	76.00	39.00	8.00	-2.00	39.00
	-11.00	-27.00	320.00	-89.00	-72.00	-93.00	-12.00
	-12.00	-27.00	461.00	-154.00	-31.00	-44.00	-12.00
	-18.00	-34.00	485.00	-130.00	46.00	29.00	-100.00
	-11.00	-32.00	218.00	-82.00	3.00	19.00	-29.00
	6.00	-2.00	-289.00	-186.00	19.00	35.00	-27.00
	-5.00	-6.00	-620.00	47.00	20.00	8.00	-31.00
	-32.00	-28.00	-212.00	37.00	15.00	3.00	-84.00
	-20.00	-15.00	249.00	-146.00	59.00	94.00	-5.00
	7.00	11.00	279.00	-65.00	31.00	99.00	56.00
	11.00	21.00	-129.00	171.00	-24.00	85.00	64.00
	-3.00	13.00	-493.00	521.00	-28.00	-1.00	8.00
	-23.00	-5.00	-678.00	857.00	-25.00	-87.00	71.00
	-33.00	-6.00	-491.00	733.00	-18.00	-47.00	22.00
	-17.00	14.00	-335.00	416.00	5.00	-13.00	-22.00
	4.00	30.00	-330.00	185.00	15.00	16.00	-67.00
	16.00	26.00	-196.00	65.00	-20.00	7.00	-21.00
	15.00	21.00	-158.00	105.00	-23.00	-9.00	12.00
	4.00	28.00	-11.00	10.00	21.00	24.00	-29.00
	-2.00	31.00	74.00	-103.00	104.00	98.00	-60.00
	12.00	33.00	146.00	-156.00	49.00	-1.00	-9.00
	28.00	32.00	175.00	-227.00	-7.00	-60.00	-25.00
	35.00	33.00	132.00	-258.00	-43.00	-71.00	-35.00
	25.00	38.00	115.00	-222.00	-42.00	-71.00	5.00
	15.00	32.00	121.00	-170.00	13.00	35.00	23.00
	20.00	40.00	82.00	-160.00	49.00	22.00	-8.00
	21.00	36.00	70.00	-102.00	-10.00	-37.00	-13.00
	3.00	23.00	148.00	-19.00	28.00	6.00	-3.00
	0.00	22.00	168.00	-38.00	31.00	-3.00	-23.00
	4.00	17.00	85.00	-127.00	13.00	19.00	34.00
	6.00	24.00	55.00	-176.00	31.00	55.00	7.00
	10.00	34.00	137.00	-212.00	50.00	73.00	40.00
	16.00	41.00	158.00	-185.00	77.00	81.00	113.00
	26.00	34.00	185.00	-190.00	50.00	61.00	96.00
	28.00	38.00	44.00	-120.00	-50.00	-96.00	54.00
	23.00	26.00	-130.00	-37.00	-89.00	-183.00	50.00
	17.00	23.00	-251.00	-41.00	-70.00	-80.00	0.00
	27.00	29.00	52.00	-338.00	-64.00	-43.00	9.00
	20.00	27.00	526.00	-335.00	-45.00	-58.00	-46.00
	6.00	24.00	595.00	-298.00	1.00	42.00	-95.00
	10.00	38.00	448.00	-386.00	10.00	53.00	-87.00
	3.00	21.00	8.00	-78.00	52.00	115.00	-40.00
	-16.00	3.00	1.00	23.00	47.00	36.00	-49.00
	-12.00	15.00	1.00	65.00	-32.00	-138.00	10.00
	-12.00	16.00	-352.00	337.00	-17.00	-39.00	70.00
	-27.00	10.00	-688.00	662.00	39.00	108.00	84.00
	-36.00	-14.00	-749.00	881.00	47.00	100.00	85.00
	-54.00	-35.00	-394.00	847.00	75.00	115.00	77.00
	-52.00	-34.00	13.00	508.00	4.00	-52.00	-63.00
	-31.00	-8.00	105.00	198.00	-18.00	-102.00	-174.00
	-22.00	2.00	50.00	-15.00	30.00	30.00	-67.00
	-7.00	6.00	-9.00	-138.00	45.00	92.00	1.00
	-6.00	17.00	16.00	-158.00	20.00	23.00	-2.00
	-1.00	26.00	252.00	-249.00	-20.00	-15.00	-38.00
	21.00	44.00	287.00	-387.00	0.00	-3.00	-27.00
	29.00	30.00	240.00	-509.00	-14.00	-32.00	16.00
	18.00	3.00	101.00	-467.00	-19.00	-60.00	32.00
	10.00	-6.00	-149.00	-254.00	1.00	-35.00	13.00
	10.00	9.00	59.00	-291.00	0.00	1.00	20.00
	7.00	25.00	-113.00	74.00	34.00	44.00	-9.00
	-3.00	10.00	-501.00	646.00	55.00	124.00	-53.00
	-14.00	-15.00	-317.00	620.00	49.00	97.00	-38.00
	-29.00	-13.00	-148.00	674.00	29.00	27.00	-8.00
	-39.00	-3.00	-74.00	519.00	23.00	42.00	26.00
	-28.00	15.00	62.00	115.00	28.00	63.00	7.00
	-6.00	25.00	261.00	-327.00	24.00	116.00	-2.00
	22.00	31.00	262.00	-397.00	-3.00	-19.00	50.00
	32.00	47.00	223.00	-300.00	-23.00	-55.00	55.00
	12.00	32.00	197.00	34.00	-21.00	-31.00	-49.00
	4.00	-5.00	-207.00	405.00	4.00	-26.00	-29.00
	4.00	-16.00	-189.00	216.00	-1.00	-41.00	4.00
	2.00	-2.00	-128.00	68.00	10.00	5.00	29.00
	-8.00	5.00	-36.00	-94.00	91.00	73.00	22.00
	13.00	22.00	109.00	-245.00	9.00	7.00	27.00
	5.00	34.00	-63.00	-80.00	2.00	27.00	26.00
	-21.00	25.00	-207.00	81.00	56.00	58.00	50.00
	-15.00	8.00	-20.00	2.00	9.00	1.00	25.00
	-15.00	-7.00	236.00	-60.00	-41.00	-59.00	-15.00
	-2.00	-2.00	179.00	-25.00	-43.00	-31.00	-10.00
	-19.00	2.00	136.00	71.00	6.00	77.00	13.00
	-23.00	2.00	218.00	11.00	63.00	104.00	4.00
	-18.00	0.00	284.00	-81.00	68.00	59.00	-11.00
	1.00	4.00	287.00	-226.00	17.00	-16.00	-33.00
	2.00	12.00	153.00	-245.00	-4.00	-21.00	-38.00
	3.00	41.00	131.00	-274.00	7.00	1.00	-34.00
	25.00	39.00	-84.00	-221.00	12.00	20.00	-140.00
	40.00	18.00	-379.00	-20.00	53.00	66.00	-123.00
	46.00	7.00	-430.00	90.00	66.00	42.00	-27.00
	37.00	0.00	-414.00	108.00	-2.00	-77.00	33.00
	29.00	9.00	-315.00	-126.00	-3.00	-81.00	47.00
	25.00	12.00	25.00	-174.00	19.00	-24.00	104.00
	19.00	16.00	210.00	-100.00	5.00	-15.00	67.00
	-8.00	21.00	259.00	-37.00	-12.00	-38.00	63.00
	-25.00	26.00	56.00	332.00	-1.00	-5.00	21.00
	-27.00	10.00	103.00	426.00	-13.00	-21.00	51.00
	-27.00	8.00	158.00	246.00	-30.00	-30.00	34.00
	-31.00	8.00	51.00	189.00	-23.00	-11.00	8.00
	-25.00	13.00	-57.00	205.00	0.00	1.00	-7.00
	-25.00	4.00	-80.00	182.00	-19.00	-15.00	-13.00
	-39.00	7.00	-40.00	14.00	75.00	99.00	-27.00
	-27.00	11.00	44.00	-80.00	97.00	126.00	-109.00
	0.00	13.00	62.00	-136.00	43.00	41.00	-65.00
	25.00	14.00	1.00	-208.00	-9.00	-24.00	-72.00
	35.00	24.00	-51.00	-284.00	-8.00	-21.00	-5.00
	27.00	26.00	-73.00	-236.00	12.00	-14.00	78.00
	9.00	21.00	68.00	-157.00	2.00	-2.00	45.00
	7.00	28.00	274.00	-192.00	5.00	43.00	-59.00
	13.00	24.00	281.00	-89.00	-17.00	39.00	-32.00
	2.00	0.00	255.00	55.00	-31.00	-7.00	21.00
	-14.00	-5.00	115.00	44.00	-37.00	-35.00	72.00
	-13.00	-4.00	183.00	4.00	-20.00	-52.00	27.00
	-12.00	0.00	284.00	-152.00	38.00	15.00	14.00
	1.00	20.00	209.00	-326.00	64.00	75.00	-49.00
	3.00	14.00	101.00	-142.00	39.00	46.00	-82.00
	14.00	3.00	-276.00	194.00	20.00	9.00	-101.00
	8.00	-3.00	-459.00	461.00	19.00	-11.00	-49.00
	-11.00	-6.00	-281.00	552.00	29.00	10.00	-50.00
	6.00	6.00	-199.00	386.00	28.00	-21.00	-35.00
	23.00	12.00	-36.00	151.00	-12.00	-61.00	74.00
	5.00	13.00	-101.00	49.00	35.00	27.00	81.00
	-10.00	8.00	-101.00	2.00	107.00	126.00	17.00
	-6.00	15.00	-158.00	-65.00	63.00	71.00	15.00
	4.00	10.00	-151.00	-31.00	23.00	-4.00	79.00
	12.00	25.00	-207.00	-80.00	16.00	-33.00	73.00
	22.00	56.00	-240.00	-168.00	10.00	-15.00	64.00
	39.00	43.00	-322.00	-261.00	35.00	10.00	64.00
	48.00	20.00	-354.00	-151.00	17.00	23.00	63.00
	33.00	7.00	-212.00	86.00	-22.00	-21.00	51.00
	16.00	5.00	-18.00	140.00	-35.00	-53.00	39.00
	-2.00	-2.00	257.00	26.00	13.00	26.00	78.00
	-3.00	5.00	347.00	58.00	31.00	20.00	88.00
	2.00	24.00	120.00	164.00	16.00	6.00	72.00
	-7.00	15.00	133.00	213.00	12.00	38.00	43.00
	-27.00	-2.00	138.00	137.00	-2.00	-7.00	41.00
	-31.00	4.00	34.00	78.00	-11.00	-10.00	-36.00
	-30.00	10.00	35.00	-29.00	0.00	12.00	9.00
	-15.00	11.00	97.00	-135.00	5.00	8.00	46.00
	-7.00	23.00	326.00	-354.00	5.00	51.00	75.00
	3.00	25.00	470.00	-498.00	-14.00	-22.00	-18.00
	6.00	31.00	489.00	-375.00	-15.00	-48.00	-105.00
	6.00	26.00	397.00	-288.00	-20.00	-45.00	-175.00
	14.00	12.00	106.00	-103.00	-52.00	-58.00	-165.00
	7.00	1.00	-283.00	218.00	-67.00	-137.00	-91.00
	8.00	24.00	-118.00	-59.00	-17.00	-24.00	-67.00
	-2.00	23.00	-131.00	-195.00	0.00	32.00	-67.00
	-7.00	14.00	-370.00	118.00	14.00	41.00	-52.00
	3.00	15.00	-337.00	176.00	12.00	14.00	-96.00
	11.00	27.00	-643.00	408.00	8.00	50.00	-94.00
	-31.00	-4.00	-782.00	846.00	73.00	119.00	-61.00
	-59.00	-17.00	-493.00	690.00	68.00	133.00	20.00
	-64.00	-14.00	33.00	310.00	39.00	86.00	42.00
	-56.00	-5.00	203.00	239.00	26.00	63.00	43.00
	-47.00	6.00	310.00	221.00	17.00	6.00	37.00
	-38.00	17.00	138.00	192.00	13.00	24.00	45.00
	-26.00	14.00	75.00	46.00	9.00	4.00	20.00
	-11.00	19.00	66.00	-74.00	15.00	-16.00	-73.00
	-4.00	34.00	77.00	-200.00	13.00	-40.00	-30.00
	2.00	43.00	139.00	-294.00	21.00	-19.00	15.00
	6.00	35.00	260.00	-293.00	48.00	55.00	50.00
	8.00	30.00	363.00	-331.00	33.00	91.00	56.00
	9.00	34.00	254.00	-324.00	-31.00	-86.00	45.00
	-3.00	27.00	201.00	-266.00	-60.00	-149.00	-61.00
	-5.00	30.00	20.00	-163.00	-12.00	-22.00	-87.00
	-7.00	12.00	5.00	11.00	11.00	15.00	-86.00
	3.00	1.00	15.00	16.00	19.00	4.00	-23.00
	6.00	-2.00	-24.00	-35.00	13.00	-10.00	0.00
	10.00	8.00	61.00	-215.00	-1.00	-5.00	8.00
	27.00	22.00	540.00	-466.00	-29.00	-43.00	46.00
	46.00	35.00	645.00	-472.00	-41.00	-65.00	59.00
	51.00	32.00	326.00	-251.00	-22.00	23.00	26.00
	56.00	41.00	-51.00	-56.00	55.00	150.00	38.00
	23.00	24.00	-852.00	374.00	121.00	202.00	39.00
	-13.00	-27.00	-683.00	413.00	78.00	40.00	51.00
	-6.00	-33.00	92.00	-33.00	-8.00	-99.00	62.00
	10.00	-4.00	-98.00	-82.00	-48.00	-119.00	23.00
	23.00	16.00	-471.00	236.00	-35.00	-53.00	29.00
	18.00	-7.00	-739.00	622.00	8.00	9.00	4.00
	-16.00	-17.00	-489.00	677.00	49.00	58.00	-57.00
	-22.00	-8.00	-78.00	489.00	46.00	57.00	-69.00
	-34.00	-20.00	61.00	410.00	30.00	38.00	-39.00
	-35.00	-9.00	19.00	254.00	47.00	72.00	-30.00
	-28.00	4.00	183.00	45.00	41.00	58.00	-51.00
	-25.00	10.00	306.00	-78.00	28.00	25.00	-59.00
	-22.00	33.00	358.00	-105.00	-3.00	-5.00	-27.00
	-6.00	38.00	234.00	-150.00	-18.00	-20.00	5.00
	-6.00	38.00	40.00	-80.00	-23.00	-11.00	15.00
	-8.00	36.00	-114.00	-17.00	-18.00	3.00	32.00
	-5.00	26.00	21.00	-100.00	43.00	122.00	44.00
	-12.00	18.00	128.00	-206.00	57.00	135.00	32.00
	6.00	20.00	138.00	-267.00	9.00	-28.00	28.00
	0.00	22.00	114.00	-210.00	-33.00	-87.00	82.00
	-4.00	25.00	12.00	-201.00	11.00	-29.00	85.00
	-23.00	13.00	-219.00	-68.00	35.00	21.00	101.00
	-31.00	6.00	-44.00	-185.00	33.00	25.00	86.00
	-21.00	7.00	108.00	-254.00	13.00	0.00	21.00
	-10.00	6.00	231.00	-244.00	-5.00	-13.00	-32.00
	8.00	-1.00	316.00	-161.00	-1.00	-15.00	-44.00
	17.00	3.00	349.00	-102.00	2.00	-35.00	-42.00
	19.00	10.00	221.00	-21.00	-7.00	-48.00	-43.00
	13.00	11.00	-42.00	9.00	-8.00	-43.00	-59.00
	28.00	25.00	-29.00	-150.00	-7.00	-33.00	-26.00
	64.00	46.00	186.00	-311.00	-14.00	13.00	11.00
	83.00	56.00	131.00	-210.00	-31.00	-1.00	4.00
	69.00	45.00	-273.00	248.00	-38.00	-16.00	33.00
	29.00	9.00	-644.00	731.00	-3.00	9.00	43.00
	-8.00	-16.00	-595.00	714.00	42.00	70.00	1.00
	-25.00	-2.00	-117.00	377.00	86.00	130.00	-12.00
	-20.00	-4.00	69.00	169.00	79.00	119.00	-15.00
	-23.00	-5.00	42.00	84.00	57.00	55.00	-22.00
	-31.00	6.00	117.00	-61.00	5.00	-26.00	-87.00
	-46.00	17.00	181.00	-175.00	-27.00	-75.00	-105.00
	-45.00	23.00	142.00	-186.00	-13.00	-49.00	-94.00
	-40.00	19.00	166.00	-201.00	31.00	15.00	-79.00
	-28.00	20.00	149.00	-154.00	32.00	2.00	-102.00
	-24.00	5.00	57.00	19.00	34.00	-28.00	-84.00
	-18.00	-2.00	115.00	6.00	29.00	-35.00	-82.00
	6.00	9.00	11.00	-227.00	27.00	-5.00	10.00
	11.00	1.00	139.00	-374.00	12.00	-28.00	74.00
	-4.00	0.00	-66.00	-320.00	22.00	56.00	117.00
	-13.00	5.00	27.00	-271.00	28.00	77.00	138.00
	5.00	26.00	241.00	-138.00	5.00	51.00	99.00
	-25.00	-5.00	-62.00	318.00	38.00	68.00	99.00
	-33.00	-1.00	-121.00	349.00	-5.00	20.00	73.00
	-7.00	16.00	-215.00	262.00	-39.00	-1.00	93.00
	4.00	18.00	-473.00	374.00	-14.00	-25.00	105.00
	-2.00	3.00	-450.00	459.00	5.00	-1.00	94.00
	-9.00	0.00	-256.00	298.00	10.00	-6.00	70.00
	0.00	10.00	-27.00	39.00	0.00	-31.00	16.00
	18.00	19.00	-45.00	-27.00	-3.00	14.00	-21.00
	17.00	30.00	-70.00	-48.00	-4.00	8.00	-21.00
	22.00	31.00	59.00	-53.00	3.00	-10.00	50.00
	25.00	35.00	212.00	5.00	14.00	-6.00	44.00
	19.00	32.00	283.00	-65.00	21.00	10.00	6.00
	6.00	21.00	24.00	-12.00	-3.00	48.00	-37.00
	8.00	11.00	-49.00	2.00	8.00	50.00	-106.00
	5.00	3.00	17.00	71.00	18.00	14.00	-130.00
	12.00	12.00	202.00	-60.00	27.00	-1.00	-104.00
	12.00	15.00	236.00	-126.00	22.00	-2.00	-79.00
	10.00	18.00	375.00	-332.00	18.00	-27.00	-73.00
	11.00	26.00	460.00	-440.00	19.00	1.00	-54.00
	15.00	17.00	80.00	-314.00	3.00	14.00	-39.00
	27.00	27.00	-110.00	-317.00	0.00	36.00	-32.00
	20.00	15.00	-598.00	86.00	30.00	42.00	1.00
	-21.00	-30.00	-572.00	547.00	11.00	-7.00	25.00
	-21.00	-26.00	-178.00	412.00	-26.00	-42.00	-9.00
	-14.00	0.00	11.00	260.00	-13.00	13.00	17.00
	-6.00	23.00	-72.00	210.00	7.00	56.00	45.00
	5.00	27.00	-165.00	156.00	9.00	28.00	36.00
	1.00	27.00	-49.00	-33.00	15.00	9.00	53.00
	-4.00	27.00	97.00	-250.00	9.00	10.00	29.00
	7.00	24.00	353.00	-397.00	0.00	22.00	14.00
	9.00	25.00	165.00	-279.00	26.00	63.00	-32.00
	12.00	26.00	227.00	-315.00	9.00	-2.00	-49.00
	9.00	21.00	483.00	-179.00	-12.00	-42.00	0.00
	4.00	1.00	283.00	218.00	-11.00	-60.00	54.00
	-1.00	8.00	34.00	331.00	-55.00	-105.00	38.00
	1.00	0.00	-365.00	428.00	0.00	3.00	11.00
	-16.00	-8.00	-448.00	520.00	57.00	105.00	-8.00
	-8.00	3.00	-197.00	402.00	28.00	16.00	-11.00
	1.00	16.00	-127.00	209.00	-12.00	-42.00	-33.00
	8.00	19.00	-116.00	160.00	-7.00	-23.00	-38.00
	2.00	18.00	-204.00	113.00	-4.00	7.00	-28.00
	-9.00	12.00	32.00	-70.00	13.00	24.00	14.00
	-24.00	4.00	198.00	-208.00	21.00	30.00	-63.00
	-6.00	17.00	46.00	-225.00	46.00	58.00	-41.00
	-2.00	26.00	-181.00	-105.00	6.00	19.00	-8.00
	-9.00	19.00	-45.00	-35.00	14.00	30.00	41.00
	-11.00	18.00	139.00	32.00	31.00	34.00	67.00
	-15.00	11.00	227.00	65.00	32.00	-3.00	32.00
	-1.00	13.00	48.00	-42.00	23.00	24.00	-41.00
	5.00	11.00	-95.00	16.00	20.00	37.00	-20.00
	10.00	17.00	-231.00	119.00	34.00	24.00	-8.00
	15.00	4.00	-101.00	28.00	27.00	30.00	6.00
	24.00	1.00	70.00	-45.00	10.00	3.00	39.00
	18.00	5.00	89.00	-161.00	-15.00	-57.00	28.00
	12.00	7.00	21.00	-272.00	-3.00	-31.00	-3.00
	3.00	18.00	-33.00	-239.00	27.00	41.00	-11.00
	-8.00	17.00	103.00	-267.00	16.00	2.00	1.00
	11.00	13.00	146.00	-292.00	7.00	3.00	20.00
	-5.00	-5.00	185.00	-121.00	31.00	9.00	4.00
	-24.00	-12.00	241.00	-76.00	12.00	7.00	34.00
	-25.00	-14.00	162.00	-12.00	6.00	6.00	-3.00
	-24.00	-7.00	-82.00	147.00	24.00	36.00	-47.00
	-21.00	10.00	-156.00	214.00	-8.00	-26.00	-20.00
	-19.00	11.00	-72.00	239.00	-19.00	-52.00	18.00
	-7.00	6.00	16.00	131.00	-23.00	-71.00	1.00
	-3.00	20.00	132.00	-57.00	17.00	6.00	-24.00
	6.00	22.00	147.00	-218.00	49.00	99.00	-45.00
	19.00	34.00	91.00	-333.00	9.00	59.00	16.00
	8.00	18.00	-115.00	-238.00	7.00	21.00	57.00
	2.00	13.00	-68.00	-109.00	13.00	82.00	80.00
	8.00	20.00	188.00	-24.00	0.00	25.00	52.00
	13.00	23.00	147.00	214.00	-24.00	-14.00	28.00
	7.00	9.00	48.00	267.00	9.00	12.00	-10.00
	18.00	13.00	128.00	35.00	69.00	91.00	-36.00
	18.00	16.00	27.00	58.00	41.00	30.00	-11.00
	24.00	16.00	-273.00	101.00	-7.00	-71.00	-9.00
	47.00	26.00	-667.00	254.00	-46.00	-125.00	-34.00
	30.00	15.00	-752.00	393.00	-75.00	-83.00	-93.00
	16.00	-2.00	-382.00	290.00	-49.00	-69.00	-38.00
	3.00	-3.00	-7.00	224.00	-23.00	-25.00	-52.00
	2.00	0.00	170.00	113.00	29.00	22.00	-3.00
	-16.00	-3.00	305.00	-12.00	76.00	69.00	7.00
	-38.00	2.00	310.00	-81.00	96.00	103.00	6.00
	-45.00	0.00	373.00	-185.00	67.00	44.00	27.00
	-54.00	11.00	361.00	-278.00	34.00	13.00	55.00
	-55.00	30.00	374.00	-370.00	34.00	43.00	42.00
	-36.00	41.00	98.00	-289.00	16.00	17.00	32.00
	-32.00	27.00	-49.00	-39.00	0.00	-2.00	32.00
	-34.00	18.00	-55.00	115.00	20.00	23.00	-18.00
	-22.00	2.00	-92.00	128.00	36.00	37.00	-30.00
	-27.00	6.00	-179.00	173.00	44.00	63.00	-30.00
	-26.00	3.00	-114.00	214.00	42.00	61.00	-1.00
	-15.00	8.00	97.00	80.00	23.00	35.00	28.00
	4.00	12.00	168.00	-42.00	-24.00	-60.00	28.00
	12.00	18.00	92.00	-33.00	-44.00	-84.00	-3.00
	15.00	27.00	-9.00	-61.00	-42.00	-69.00	-19.00
	14.00	32.00	-76.00	-91.00	-8.00	18.00	-2.00
	19.00	29.00	273.00	-139.00	36.00	55.00	79.00
	18.00	18.00	552.00	-269.00	34.00	2.00	51.00
	31.00	44.00	448.00	-379.00	-36.00	-58.00	36.00
	30.00	44.00	-194.00	-152.00	-43.00	-30.00	17.00
	19.00	31.00	-645.00	206.00	-17.00	14.00	7.00
	2.00	13.00	-452.00	233.00	24.00	54.00	4.00
	12.00	20.00	-233.00	-10.00	41.00	36.00	-76.00
	28.00	23.00	-243.00	113.00	31.00	37.00	-88.00
	20.00	7.00	-245.00	279.00	41.00	47.00	-102.00
	26.00	-3.00	-342.00	402.00	18.00	34.00	-56.00
	11.00	-14.00	-258.00	462.00	22.00	13.00	-27.00
	-12.00	-34.00	-141.00	345.00	51.00	10.00	9.00
	-10.00	-21.00	4.00	-15.00	25.00	-19.00	19.00
	-3.00	-1.00	167.00	-227.00	6.00	-39.00	74.00
	-6.00	17.00	286.00	-267.00	20.00	-27.00	93.00
	-10.00	26.00	417.00	-316.00	5.00	-23.00	36.00
	-6.00	40.00	253.00	-252.00	-9.00	-9.00	27.00
	-6.00	37.00	-55.00	-3.00	1.00	41.00	60.00
	-6.00	18.00	-446.00	336.00	1.00	42.00	55.00
	-20.00	5.00	-569.00	468.00	11.00	54.00	32.00
	-24.00	-3.00	-231.00	232.00	26.00	37.00	49.00
	-5.00	15.00	242.00	-119.00	-1.00	-12.00	29.00
	-2.00	22.00	352.00	-204.00	-1.00	-10.00	12.00
	-13.00	14.00	312.00	-186.00	26.00	28.00	3.00
	-8.00	10.00	279.00	-252.00	45.00	78.00	-3.00
	-2.00	15.00	178.00	-14.00	-15.00	22.00	1.00
	-1.00	-12.00	-11.00	294.00	-15.00	-49.00	3.00
	-9.00	-18.00	-17.00	197.00	1.00	-38.00	20.00
	-14.00	-4.00	85.00	97.00	20.00	6.00	10.00
	-20.00	9.00	49.00	-18.00	23.00	31.00	-72.00
	-3.00	21.00	20.00	-96.00	21.00	17.00	-92.00
	12.00	18.00	-97.00	-80.00	10.00	16.00	-45.00
	10.00	18.00	-161.00	-68.00	6.00	15.00	-77.00
	17.00	27.00	-125.00	-68.00	0.00	-7.00	-51.00
	4.00	15.00	-19.00	-67.00	9.00	-11.00	-24.00
	2.00	18.00	104.00	-139.00	10.00	-32.00	-49.00
	12.00	31.00	133.00	-265.00	6.00	-37.00	-55.00
	19.00	31.00	102.00	-405.00	6.00	-30.00	-29.00
	26.00	32.00	131.00	-409.00	0.00	-29.00	10.00
	5.00	32.00	272.00	-225.00	-19.00	-25.00	37.00
	-1.00	17.00	437.00	-63.00	10.00	54.00	23.00
	6.00	18.00	459.00	15.00	24.00	144.00	41.00
	-5.00	19.00	-60.00	408.00	-8.00	23.00	-10.00
	-9.00	-4.00	-400.00	415.00	-24.00	-113.00	-40.00
	-16.00	-6.00	-487.00	329.00	-13.00	-66.00	-57.00
	-10.00	1.00	-530.00	240.00	16.00	-7.00	2.00
	-3.00	15.00	-280.00	167.00	18.00	77.00	3.00
	-8.00	18.00	32.00	93.00	24.00	83.00	-4.00
	-3.00	26.00	159.00	49.00	22.00	34.00	28.00
	-4.00	31.00	28.00	-22.00	27.00	18.00	8.00
	-17.00	22.00	-145.00	95.00	31.00	20.00	28.00
	-15.00	11.00	-267.00	124.00	21.00	19.00	15.00
	4.00	21.00	-151.00	32.00	13.00	5.00	33.00
	20.00	21.00	-61.00	5.00	15.00	32.00	53.00
	2.00	-13.00	206.00	16.00	38.00	38.00	18.00
	9.00	-8.00	312.00	-131.00	32.00	15.00	1.00
	13.00	8.00	358.00	-221.00	19.00	6.00	-11.00
	20.00	14.00	348.00	-206.00	7.00	-10.00	-27.00
	32.00	19.00	100.00	-114.00	0.00	-15.00	-15.00
	23.00	2.00	-60.00	-158.00	21.00	-18.00	-12.00
	14.00	2.00	8.00	-140.00	57.00	-9.00	9.00
	-5.00	2.00	145.00	-133.00	32.00	-29.00	27.00
	-10.00	7.00	288.00	-181.00	7.00	-30.00	42.00
	-13.00	7.00	-42.00	125.00	6.00	-3.00	64.00
	-29.00	-3.00	-391.00	270.00	24.00	63.00	45.00
	-35.00	6.00	-319.00	183.00	25.00	91.00	9.00
	-41.00	0.00	-350.00	352.00	15.00	86.00	3.00
	-33.00	7.00	-255.00	398.00	20.00	69.00	13.00
	-17.00	3.00	-86.00	219.00	4.00	32.00	11.00
	-1.00	4.00	-29.00	-17.00	-19.00	-17.00	-31.00
	10.00	16.00	140.00	-205.00	-32.00	-74.00	-20.00
	15.00	21.00	447.00	-494.00	-14.00	-49.00	-39.00
	25.00	31.00	466.00	-715.00	-34.00	-62.00	-49.00
	24.00	35.00	224.00	-623.00	-23.00	-10.00	-6.00
	23.00	36.00	-142.00	-290.00	-11.00	3.00	-10.00
	24.00	20.00	-217.00	149.00	3.00	27.00	-10.00
	15.00	0.00	-383.00	636.00	42.00	89.00	8.00
	-11.00	-26.00	-506.00	989.00	54.00	114.00	7.00
	-23.00	-34.00	-150.00	742.00	35.00	28.00	31.00
	-23.00	-7.00	-49.00	294.00	14.00	-13.00	-2.00
	-11.00	21.00	-34.00	-46.00	0.00	-29.00	-23.00
	-9.00	26.00	6.00	-56.00	-30.00	-82.00	-71.00
	-5.00	19.00	128.00	-44.00	-13.00	-76.00	-80.00
	2.00	26.00	275.00	-136.00	-16.00	-56.00	16.00
	1.00	22.00	220.00	-87.00	5.00	-11.00	55.00
	-9.00	2.00	67.00	-80.00	54.00	19.00	47.00
	-11.00	9.00	261.00	-329.00	81.00	57.00	41.00
	7.00	21.00	388.00	-468.00	32.00	19.00	31.00
	17.00	19.00	291.00	-376.00	10.00	1.00	29.00
	19.00	23.00	133.00	-232.00	7.00	56.00	16.00
	16.00	35.00	-246.00	77.00	23.00	101.00	-10.00
	-11.00	6.00	-488.00	619.00	22.00	39.00	47.00
	-34.00	-26.00	-192.00	568.00	35.00	16.00	94.00
	-28.00	-11.00	231.00	52.00	63.00	75.00	78.00
	-11.00	11.00	332.00	-150.00	61.00	81.00	32.00
	6.00	30.00	138.00	-115.00	18.00	57.00	33.00
	18.00	20.00	-100.00	75.00	-31.00	-96.00	45.00
	27.00	11.00	-230.00	165.00	-24.00	-80.00	68.00
	15.00	5.00	-192.00	56.00	7.00	22.00	-3.00
	6.00	8.00	-98.00	-91.00	31.00	52.00	-22.00
	17.00	22.00	-40.00	-171.00	52.00	87.00	19.00
	18.00	32.00	-98.00	-173.00	40.00	84.00	14.00
	15.00	3.00	189.00	-204.00	-20.00	-98.00	14.00
	4.00	7.00	480.00	-250.00	-79.00	-235.00	-15.00
	2.00	18.00	404.00	-231.00	-52.00	-172.00	-53.00
	0.00	21.00	-9.00	-44.00	-23.00	-71.00	-97.00
	-8.00	28.00	-425.00	306.00	-14.00	37.00	-78.00
	-7.00	30.00	-669.00	477.00	-10.00	54.00	-82.00
	-4.00	26.00	-519.00	397.00	8.00	36.00	-82.00
	-5.00	30.00	-139.00	107.00	19.00	58.00	-91.00
	-5.00	27.00	43.00	12.00	19.00	73.00	-94.00
	0.00	10.00	82.00	8.00	23.00	119.00	-30.00
	7.00	4.00	49.00	-57.00	10.00	40.00	5.00
	0.00	1.00	-24.00	-73.00	-28.00	-121.00	-16.00
	0.00	10.00	-52.00	-103.00	-15.00	-64.00	14.00
	2.00	31.00	17.00	-163.00	18.00	14.00	75.00
	4.00	31.00	112.00	-212.00	32.00	28.00	73.00
	-11.00	17.00	75.00	-102.00	28.00	21.00	56.00
	-18.00	23.00	-36.00	-117.00	29.00	21.00	-3.00
	-5.00	23.00	-184.00	-214.00	18.00	32.00	-77.00
	8.00	11.00	-160.00	-253.00	20.00	14.00	-88.00
	21.00	11.00	41.00	-278.00	14.00	3.00	-59.00
	37.00	25.00	412.00	-160.00	0.00	23.00	-27.00
	24.00	22.00	502.00	128.00	-4.00	-2.00	10.00
	-14.00	-25.00	361.00	372.00	2.00	-24.00	29.00
	-36.00	-33.00	136.00	274.00	2.00	-15.00	29.00
	-31.00	4.00	83.00	55.00	28.00	46.00	7.00
	-3.00	4.00	-26.00	57.00	43.00	77.00	-56.00
	-7.00	14.00	-134.00	347.00	10.00	46.00	-72.00
	-10.00	16.00	44.00	426.00	0.00	-5.00	-50.00
	-8.00	21.00	26.00	135.00	0.00	-19.00	31.00
	-9.00	26.00	-68.00	19.00	7.00	12.00	13.00
	-11.00	20.00	-99.00	-31.00	50.00	48.00	8.00
	-28.00	14.00	-60.00	-87.00	36.00	43.00	32.00
	-22.00	14.00	309.00	-73.00	34.00	42.00	80.00
	-16.00	18.00	296.00	-23.00	34.00	4.00	50.00
	-10.00	16.00	413.00	-131.00	-10.00	-37.00	31.00
	7.00	37.00	29.00	-140.00	-25.00	-30.00	27.00
	-3.00	26.00	-420.00	46.00	8.00	17.00	29.00
	-19.00	8.00	-492.00	132.00	62.00	58.00	25.00
	-18.00	16.00	-506.00	131.00	46.00	64.00	-76.00
	-17.00	5.00	-352.00	216.00	38.00	86.00	-31.00
	-28.00	-3.00	-184.00	353.00	39.00	43.00	15.00
	-25.00	-15.00	-191.00	325.00	22.00	-10.00	-3.00
	-10.00	4.00	-194.00	141.00	14.00	-2.00	-4.00
	25.00	21.00	-257.00	22.00	7.00	-21.00	6.00
	52.00	35.00	-314.00	-6.00	-4.00	-37.00	-8.00
	47.00	31.00	-159.00	-19.00	5.00	7.00	9.00
	22.00	26.00	151.00	-128.00	20.00	58.00	24.00
	10.00	17.00	288.00	-132.00	33.00	60.00	32.00
	1.00	14.00	385.00	-77.00	-3.00	-19.00	23.00
	3.00	11.00	364.00	-79.00	-31.00	-40.00	-21.00
	-25.00	-2.00	397.00	-184.00	-15.00	10.00	-25.00
	-28.00	-6.00	318.00	-279.00	0.00	30.00	27.00
	-18.00	10.00	201.00	-268.00	-41.00	-16.00	-8.00
	1.00	11.00	54.00	-210.00	-52.00	-24.00	-48.00
	8.00	9.00	-20.00	-133.00	-15.00	20.00	-3.00
	5.00	7.00	-55.00	-63.00	43.00	27.00	57.00
	11.00	11.00	92.00	-118.00	37.00	2.00	60.00
	15.00	9.00	222.00	-126.00	-1.00	-12.00	72.00
	9.00	3.00	270.00	-76.00	-4.00	-14.00	26.00
	-3.00	10.00	313.00	-65.00	-1.00	7.00	-35.00
	1.00	21.00	299.00	-73.00	15.00	8.00	-3.00
	-5.00	21.00	41.00	62.00	10.00	-24.00	23.00
	-3.00	18.00	-133.00	31.00	6.00	-20.00	-6.00
	-7.00	20.00	-226.00	7.00	18.00	-4.00	-18.00
	-7.00	21.00	-241.00	85.00	18.00	7.00	-27.00
	-12.00	15.00	-238.00	214.00	26.00	26.00	-40.00
	-5.00	27.00	-168.00	113.00	29.00	17.00	-53.00
	-3.00	35.00	-11.00	60.00	17.00	1.00	-2.00
	-13.00	39.00	175.00	-67.00	25.00	5.00	67.00
	-20.00	56.00	247.00	-157.00	14.00	-13.00	110.00
	-17.00	60.00	101.00	-63.00	-3.00	-8.00	116.00
	-19.00	47.00	-258.00	136.00	-10.00	12.00	109.00
	-33.00	36.00	-529.00	271.00	-2.00	12.00	64.00
	-38.00	37.00	-320.00	146.00	5.00	11.00	60.00
	-51.00	36.00	-24.00	155.00	20.00	2.00	10.00
	-65.00	38.00	264.00	-12.00	23.00	2.00	22.00
	-73.00	48.00	267.00	-172.00	18.00	-6.00	2.00
	-77.00	46.00	142.00	-292.00	-5.00	-10.00	-30.00
	-81.00	32.00	142.00	-244.00	-5.00	45.00	-21.00
	-85.00	22.00	-11.00	-92.00	4.00	64.00	-62.00
	-82.00	23.00	-199.00	59.00	-7.00	0.00	-60.00
	-107.00	-6.00	-574.00	400.00	-3.00	-31.00	-40.00
	-97.00	-17.00	-414.00	429.00	17.00	35.00	-58.00
	-65.00	-5.00	-219.00	293.00	-1.00	-22.00	-91.00
	-42.00	-8.00	-173.00	256.00	9.00	2.00	-70.00
	-32.00	-11.00	-251.00	233.00	24.00	25.00	-53.00
	-24.00	-9.00	-231.00	155.00	11.00	29.00	-8.00
	-1.00	-25.00	-127.00	111.00	-20.00	0.00	-44.00
	15.00	-35.00	-71.00	93.00	-10.00	-7.00	-11.00
	43.00	-42.00	130.00	-22.00	1.00	6.00	-6.00
	64.00	-36.00	191.00	-118.00	15.00	18.00	-34.00
	78.00	-34.00	110.00	-143.00	29.00	8.00	-25.00
	75.00	-42.00	141.00	-165.00	62.00	37.00	0.00
	95.00	-45.00	35.00	-166.00	64.00	71.00	28.00
	113.00	-49.00	143.00	-162.00	34.00	47.00	3.00
	129.00	-50.00	538.00	-312.00	16.00	-7.00	-27.00
	149.00	-64.00	690.00	-386.00	18.00	-8.00	1.00
	158.00	-38.00	389.00	-412.00	10.00	-28.00	3.00
	152.00	-15.00	75.00	-295.00	-13.00	-64.00	-26.00
	160.00	-25.00	-210.00	-96.00	0.00	-31.00	-5.00
	164.00	-29.00	-306.00	175.00	4.00	-26.00	14.00
	155.00	-49.00	-170.00	407.00	0.00	-10.00	45.00
	126.00	-54.00	-246.00	435.00	7.00	42.00	24.00
	97.00	-38.00	-156.00	286.00	13.00	57.00	30.00
	86.00	-15.00	-1.00	158.00	28.00	46.00	16.00
	90.00	0.00	215.00	-115.00	19.00	24.00	1.00
	89.00	27.00	387.00	-309.00	-4.00	0.00	-6.00
	83.00	51.00	259.00	-180.00	-24.00	-8.00	17.00
	52.00	37.00	192.00	35.00	3.00	6.00	19.00
	25.00	14.00	72.00	211.00	0.00	-6.00	-9.00
	13.00	13.00	-239.00	271.00	29.00	-8.00	-8.00
	8.00	28.00	-285.00	45.00	33.00	30.00	-7.00
	2.00	44.00	-410.00	72.00	31.00	66.00	14.00
	6.00	52.00	-285.00	-16.00	-6.00	-16.00	18.00
	-2.00	63.00	49.00	-119.00	-21.00	-7.00	-28.00
	-21.00	66.00	69.00	-7.00	34.00	88.00	3.00
	-24.00	54.00	-9.00	74.00	38.00	35.00	14.00
	-41.00	39.00	1.00	145.00	24.00	-17.00	34.00
	-67.00	22.00	252.00	132.00	30.00	-10.00	44.00
	-85.00	46.00	395.00	-19.00	36.00	-50.00	33.00
	-71.00	54.00	500.00	-139.00	14.00	-58.00	34.00
	-64.00	47.00	372.00	-157.00	32.00	19.00	-5.00
	-50.00	49.00	99.00	-83.00	36.00	30.00	-69.00
	-48.00	42.00	-395.00	157.00	16.00	63.00	-69.00
	-62.00	41.00	-508.00	185.00	23.00	134.00	-43.00
	-65.00	60.00	-307.00	-41.00	-20.00	-6.00	-16.00
	-64.00	64.00	-77.00	-94.00	-11.00	-47.00	17.00
	-68.00	48.00	43.00	-77.00	19.00	-24.00	9.00
	-88.00	21.00	228.00	-37.00	17.00	-39.00	49.00
	-94.00	23.00	160.00	-29.00	-4.00	-42.00	27.00
	-78.00	26.00	-37.00	102.00	-6.00	2.00	19.00
	-67.00	21.00	-229.00	223.00	24.00	114.00	-7.00
	-65.00	23.00	-271.00	200.00	33.00	96.00	-39.00
	-50.00	23.00	-120.00	72.00	4.00	29.00	-39.00
	-39.00	17.00	72.00	-30.00	-4.00	14.00	-33.00
	-28.00	23.00	18.00	-111.00	-3.00	-2.00	0.00
	-21.00	33.00	12.00	-317.00	-17.00	-27.00	-21.00
	-28.00	34.00	60.00	-389.00	-5.00	-38.00	-70.00
	-51.00	18.00	287.00	-426.00	-3.00	-59.00	-31.00
	-41.00	18.00	492.00	-445.00	3.00	-33.00	5.00
	-39.00	10.00	83.00	57.00	7.00	-23.00	13.00
	-49.00	-9.00	-271.00	479.00	-7.00	11.00	4.00
	-39.00	-2.00	-332.00	564.00	13.00	65.00	14.00
	-33.00	5.00	-246.00	463.00	32.00	84.00	46.00
	-27.00	5.00	-85.00	205.00	35.00	84.00	42.00
	-21.00	15.00	-2.00	-40.00	15.00	30.00	33.00
	-13.00	18.00	54.00	-123.00	0.00	13.00	1.00
	1.00	18.00	101.00	-175.00	-4.00	32.00	9.00
	18.00	20.00	208.00	-172.00	22.00	52.00	31.00
	17.00	17.00	202.00	-91.00	50.00	57.00	-20.00
	18.00	11.00	7.00	61.00	11.00	-51.00	-19.00
	40.00	27.00	-141.00	-27.00	-48.00	-115.00	-9.00
	47.00	25.00	-357.00	63.00	-61.00	-111.00	-14.00
	8.00	-4.00	-453.00	217.00	15.00	-14.00	2.00
	-3.00	-7.00	-157.00	40.00	31.00	-2.00	24.00
	4.00	0.00	20.00	-34.00	-4.00	-26.00	14.00
	4.00	7.00	76.00	-6.00	52.00	38.00	-28.00
	8.00	15.00	80.00	46.00	39.00	21.00	-29.00
	2.00	8.00	13.00	202.00	14.00	-5.00	-44.00
	-2.00	-6.00	9.00	20.00	8.00	-9.00	-29.00
	-1.00	7.00	23.00	-166.00	6.00	-2.00	-23.00
	2.00	22.00	112.00	-237.00	5.00	2.00	-27.00
	7.00	24.00	226.00	-270.00	1.00	4.00	-1.00
	0.00	5.00	296.00	-142.00	13.00	20.00	10.00
	5.00	4.00	498.00	-130.00	14.00	25.00	0.00
	-6.00	16.00	513.00	-71.00	9.00	25.00	-4.00
	-23.00	4.00	202.00	95.00	21.00	3.00	25.00
	-5.00	9.00	191.00	-16.00	10.00	-14.00	38.00
	18.00	23.00	-84.00	76.00	25.00	-41.00	43.00
	21.00	34.00	-307.00	89.00	35.00	-19.00	1.00
	30.00	29.00	-247.00	-25.00	5.00	-11.00	-16.00
	35.00	21.00	-279.00	38.00	-14.00	21.00	-28.00
	17.00	3.00	-355.00	194.00	-22.00	35.00	-8.00
	4.00	-10.00	-91.00	76.00	0.00	35.00	-7.00
	-4.00	-8.00	191.00	-41.00	22.00	47.00	33.00
	3.00	-11.00	81.00	-109.00	54.00	55.00	46.00
	12.00	-2.00	188.00	-112.00	39.00	31.00	64.00
	13.00	2.00	-174.00	77.00	9.00	-5.00	52.00
	-10.00	-22.00	-511.00	274.00	19.00	-8.00	83.00
	-15.00	-10.00	-352.00	203.00	44.00	48.00	52.00
	-6.00	2.00	-248.00	92.00	3.00	29.00	63.00
	2.00	20.00	-11.00	22.00	-37.00	7.00	78.00
	-22.00	15.00	229.00	35.00	-36.00	-10.00	58.00
	-35.00	16.00	335.00	-90.00	-20.00	35.00	53.00
	-22.00	37.00	323.00	-215.00	-7.00	39.00	-8.00
	-4.00	24.00	-61.00	75.00	39.00	76.00	-80.00
	-29.00	1.00	-241.00	386.00	37.00	59.00	-69.00
	-18.00	6.00	-117.00	255.00	38.00	65.00	-60.00
	-7.00	-1.00	-68.00	280.00	33.00	12.00	-36.00
	5.00	-13.00	-41.00	176.00	7.00	-24.00	-71.00
	24.00	12.00	-36.00	-32.00	23.00	8.00	-38.00
	26.00	34.00	-143.00	-58.00	37.00	5.00	2.00
	20.00	36.00	-84.00	-58.00	30.00	-19.00	19.00
	2.00	7.00	160.00	-4.00	87.00	46.00	26.00
	-3.00	-7.00	227.00	-68.00	76.00	43.00	-27.00
	4.00	15.00	119.00	-150.00	34.00	-2.00	3.00
	5.00	24.00	125.00	-171.00	7.00	-54.00	-16.00
	16.00	31.00	267.00	-330.00	2.00	-45.00	-69.00
	26.00	27.00	340.00	-442.00	-2.00	-55.00	-38.00
	31.00	15.00	173.00	-429.00	-1.00	-18.00	-27.00
	21.00	17.00	-67.00	-179.00	13.00	42.00	-45.00
	22.00	10.00	-140.00	106.00	27.00	9.00	-1.00
	16.00	-2.00	-54.00	304.00	20.00	-15.00	-11.00
	10.00	5.00	63.00	261.00	6.00	14.00	-34.00
	19.00	12.00	133.00	51.00	-7.00	33.00	1.00
	28.00	31.00	-16.00	-73.00	-24.00	47.00	32.00
	19.00	26.00	0.00	-112.00	-30.00	40.00	23.00
	9.00	10.00	-107.00	87.00	-22.00	3.00	28.00
	-6.00	-7.00	-342.00	314.00	-23.00	-74.00	37.00
	-10.00	-3.00	-367.00	266.00	-43.00	-67.00	-13.00
	-31.00	-4.00	-306.00	323.00	-8.00	-13.00	-9.00
	-28.00	-7.00	-47.00	91.00	59.00	61.00	-20.00
	-18.00	6.00	64.00	-119.00	45.00	40.00	-54.00
	-6.00	21.00	7.00	-233.00	21.00	11.00	-27.00
	8.00	25.00	-92.00	-206.00	-2.00	2.00	-27.00
	10.00	24.00	56.00	-121.00	-10.00	8.00	-24.00
	12.00	18.00	175.00	-78.00	14.00	24.00	-22.00
	4.00	8.00	241.00	-44.00	4.00	-5.00	0.00
	-1.00	1.00	198.00	-223.00	36.00	54.00	44.00
	2.00	19.00	180.00	-400.00	-3.00	-92.00	23.00
	14.00	30.00	81.00	-279.00	-31.00	-105.00	40.00
