	-5.00	-6.00	46.00	26.00	25.00	4.00	-19.00
	-6.00	-11.00	53.00	31.00	23.00	4.00	-24.00
	-2.00	-22.00	47.00	29.00	19.00	7.00	-15.00
	1.00	-12.00	37.00	31.00	13.00	6.00	-7.00
	1.00	-11.00	1.00	10.00	5.00	5.00	-3.00
	1.00	-16.00	-10.00	0.00	-5.00	10.00	-4.00
	6.00	-27.00	-31.00	-18.00	-5.00	19.00	-2.00
	8.00	-24.00	-49.00	-35.00	-1.00	23.00	-15.00
	10.00	11.00	-41.00	-40.00	0.00	19.00	-48.00
	7.00	19.00	-41.00	-37.00	0.00	10.00	-56.00
	0.00	9.00	-18.00	-11.00	6.00	-4.00	-29.00
	-3.00	-6.00	-6.00	4.00	5.00	-10.00	12.00
	-4.00	13.00	-3.00	15.00	-4.00	-11.00	26.00
	-2.00	16.00	2.00	29.00	-19.00	-10.00	16.00
	-3.00	9.00	3.00	36.00	-22.00	-6.00	27.00
	2.00	12.00	13.00	50.00	-13.00	-7.00	20.00
	3.00	-1.00	29.00	63.00	-4.00	-5.00	13.00
	3.00	14.00	27.00	45.00	1.00	2.00	15.00
	5.00	22.00	13.00	6.00	3.00	9.00	12.00
	9.00	33.00	13.00	-12.00	6.00	14.00	5.00
	6.00	43.00	14.00	-23.00	7.00	15.00	6.00
	7.00	48.00	7.00	-35.00	7.00	12.00	40.00
	-1.00	64.00	12.00	-51.00	7.00	10.00	56.00
	-7.00	66.00	37.00	-33.00	8.00	9.00	55.00
	-8.00	47.00	66.00	5.00	9.00	5.00	54.00
	-4.00	52.00	77.00	20.00	9.00	2.00	40.00
	2.00	47.00	61.00	38.00	3.00	-4.00	49.00
	-1.00	38.00	101.00	79.00	1.00	-14.00	24.00
	-7.00	39.00	132.00	94.00	-2.00	-20.00	20.00
	-5.00	43.00	153.00	96.00	-2.00	-22.00	36.00
	-3.00	35.00	139.00	55.00	-2.00	-11.00	38.00
	2.00	29.00	83.00	1.00	-2.00	-5.00	18.00
	6.00	25.00	32.00	-14.00	0.00	2.00	11.00
	8.00	7.00	-11.00	-9.00	3.00	3.00	3.00
	7.00	6.00	-48.00	33.00	0.00	11.00	-14.00
	5.00	6.00	-94.00	42.00	-2.00	21.00	-37.00
	3.00	-2.00	-106.00	51.00	0.00	20.00	-38.00
	5.00	-11.00	-121.00	54.00	1.00	22.00	-32.00
	7.00	-21.00	-96.00	26.00	6.00	20.00	-32.00
	6.00	-8.00	-81.00	-42.00	14.00	14.00	-62.00
	7.00	-13.00	-68.00	-92.00	9.00	19.00	-33.00
	7.00	-23.00	-88.00	-112.00	14.00	21.00	-44.00
	10.00	-6.00	-84.00	-93.00	18.00	29.00	-54.00
	5.00	18.00	-94.00	-105.00	17.00	27.00	-65.00
	6.00	20.00	-101.00	-107.00	22.00	29.00	-60.00
	0.00	30.00	-57.00	-82.00	30.00	36.00	-33.00
	-5.00	53.00	-36.00	-62.00	32.00	31.00	-21.00
	-2.00	42.00	-46.00	-25.00	33.00	15.00	-18.00
	0.00	25.00	-34.00	-6.00	33.00	-6.00	2.00
	-3.00	27.00	-17.00	-47.00	37.00	-22.00	12.00
	1.00	32.00	-32.00	-53.00	32.00	-17.00	18.00
	8.00	22.00	-25.00	-43.00	20.00	-12.00	24.00
	7.00	22.00	-15.00	-12.00	22.00	-3.00	14.00
	7.00	7.00	-17.00	12.00	30.00	3.00	-14.00
	6.00	-16.00	38.00	23.00	33.00	13.00	-1.00
	4.00	-23.00	44.00	33.00	27.00	23.00	25.00
	-4.00	-8.00	49.00	41.00	25.00	16.00	41.00
	-6.00	13.00	97.00	44.00	24.00	15.00	45.00
	-12.00	10.00	140.00	65.00	25.00	12.00	37.00
	-11.00	0.00	139.00	71.00	25.00	3.00	11.00
	-10.00	-2.00	186.00	89.00	23.00	-4.00	8.00
	-12.00	-1.00	99.00	43.00	27.00	-17.00	18.00
	-9.00	1.00	14.00	23.00	19.00	-18.00	32.00
	-6.00	5.00	-36.00	11.00	17.00	-6.00	24.00
	-2.00	6.00	-92.00	-48.00	23.00	3.00	5.00
	-5.00	-3.00	-122.00	-65.00	37.00	14.00	0.00
	-1.00	-21.00	-107.00	-45.00	57.00	15.00	7.00
	0.00	-25.00	-100.00	-39.00	62.00	12.00	21.00
	-6.00	-28.00	-52.00	-10.00	44.00	11.00	23.00
	-6.00	-28.00	-31.00	24.00	23.00	6.00	27.00
	-3.00	-5.00	-27.00	41.00	2.00	0.00	-3.00
	-10.00	14.00	-23.00	43.00	-30.00	-14.00	-22.00
	-7.00	14.00	-24.00	39.00	-52.00	-16.00	-6.00
	3.00	3.00	-70.00	14.00	-57.00	-14.00	3.00
	1.00	11.00	-86.00	6.00	-63.00	0.00	-3.00
	5.00	21.00	-80.00	25.00	-63.00	11.00	-3.00
	5.00	25.00	-34.00	28.00	-53.00	22.00	8.00
	4.00	31.00	34.00	21.00	-41.00	32.00	5.00
	1.00	32.00	65.00	17.00	-38.00	33.00	23.00
	-6.00	29.00	29.00	9.00	-28.00	34.00	30.00
	-8.00	26.00	46.00	19.00	-11.00	38.00	34.00
	-19.00	35.00	63.00	40.00	-3.00	38.00	19.00
	-19.00	47.00	68.00	67.00	-1.00	35.00	21.00
	-12.00	41.00	35.00	86.00	6.00	29.00	35.00
	-6.00	31.00	9.00	102.00	18.00	14.00	23.00
	-8.00	13.00	22.00	94.00	43.00	-2.00	14.00
	1.00	2.00	29.00	79.00	43.00	-4.00	3.00
	5.00	-3.00	15.00	63.00	28.00	0.00	-11.00
	1.00	17.00	-4.00	32.00	20.00	3.00	-16.00
	-1.00	46.00	7.00	12.00	13.00	4.00	-5.00
	-4.00	46.00	61.00	5.00	4.00	10.00	-16.00
	-4.00	39.00	91.00	-3.00	0.00	18.00	-25.00
	-5.00	21.00	90.00	-5.00	-5.00	26.00	-16.00
	-7.00	-2.00	69.00	-25.00	-14.00	29.00	-7.00
	-11.00	-17.00	59.00	-41.00	-24.00	16.00	-47.00
	-3.00	-26.00	58.00	-25.00	-48.00	6.00	-45.00
	-4.00	0.00	21.00	-32.00	-49.00	8.00	-29.00
	-7.00	-2.00	0.00	1.00	-10.00	13.00	-50.00
	-11.00	5.00	5.00	23.00	21.00	11.00	-40.00
	-12.00	27.00	16.00	46.00	32.00	6.00	-7.00
	-3.00	29.00	-17.00	7.00	30.00	4.00	2.00
	-6.00	8.00	15.00	3.00	34.00	11.00	-1.00
	-3.00	-1.00	33.00	0.00	42.00	13.00	-27.00
	-4.00	6.00	23.00	-4.00	51.00	14.00	-39.00
	-2.00	15.00	50.00	6.00	44.00	14.00	-19.00
	6.00	19.00	67.00	-15.00	41.00	9.00	-3.00
	-4.00	26.00	84.00	26.00	36.00	4.00	26.00
	-6.00	28.00	134.00	40.00	34.00	7.00	44.00
	-2.00	34.00	116.00	3.00	35.00	9.00	55.00
	-2.00	16.00	60.00	-40.00	47.00	8.00	45.00
	-1.00	3.00	12.00	-40.00	52.00	16.00	47.00
	-1.00	9.00	6.00	-34.00	62.00	19.00	60.00
	-3.00	12.00	45.00	-8.00	59.00	11.00	67.00
	-1.00	3.00	71.00	-2.00	52.00	4.00	66.00
	2.00	9.00	-9.00	-31.00	56.00	-16.00	44.00
	-1.00	32.00	-60.00	-29.00	57.00	-34.00	22.00
	4.00	56.00	-132.00	-50.00	47.00	-32.00	-8.00
	5.00	42.00	-170.00	-57.00	31.00	-25.00	-30.00
	9.00	20.00	-205.00	-75.00	13.00	-34.00	-29.00
	9.00	14.00	-222.00	-71.00	0.00	-29.00	-42.00
	13.00	9.00	-192.00	-59.00	0.00	-27.00	-48.00
	16.00	8.00	-161.00	-30.00	5.00	-23.00	-70.00
	17.00	-6.00	-76.00	2.00	3.00	-17.00	-67.00
	13.00	-20.00	-20.00	13.00	-7.00	-2.00	-73.00
	9.00	-23.00	22.00	25.00	-22.00	7.00	-63.00
	6.00	-26.00	81.00	30.00	-4.00	26.00	-55.00
	4.00	-33.00	100.00	40.00	3.00	29.00	-31.00
	1.00	-37.00	79.00	42.00	-8.00	15.00	-16.00
	-8.00	-20.00	43.00	60.00	-16.00	21.00	-4.00
	-12.00	1.00	-9.00	64.00	1.00	43.00	25.00
	-15.00	17.00	27.00	86.00	11.00	53.00	66.00
	-15.00	29.00	33.00	81.00	17.00	50.00	79.00
	-11.00	34.00	-1.00	62.00	24.00	49.00	64.00
	-7.00	14.00	-17.00	57.00	24.00	38.00	44.00
	2.00	-1.00	-42.00	34.00	34.00	34.00	28.00
	0.00	0.00	-1.00	19.00	43.00	21.00	16.00
	0.00	-9.00	47.00	-36.00	39.00	2.00	8.00
	3.00	11.00	20.00	-85.00	31.00	-10.00	-1.00
	7.00	46.00	29.00	-54.00	17.00	-13.00	4.00
	4.00	78.00	-8.00	-25.00	20.00	-14.00	14.00
	6.00	59.00	-28.00	-18.00	32.00	-5.00	-2.00
	7.00	34.00	-10.00	-9.00	33.00	-4.00	-5.00
	6.00	35.00	24.00	13.00	28.00	-7.00	-9.00
	7.00	30.00	29.00	25.00	25.00	-6.00	-21.00
	4.00	27.00	44.00	48.00	19.00	-14.00	-43.00
	0.00	28.00	63.00	49.00	11.00	-18.00	-32.00
	2.00	21.00	89.00	18.00	5.00	-2.00	-7.00
	0.00	20.00	46.00	-27.00	3.00	14.00	-16.00
	-2.00	7.00	-14.00	-30.00	1.00	21.00	-11.00
	-3.00	-30.00	-55.00	-26.00	-1.00	21.00	-6.00
	-2.00	-44.00	-70.00	-12.00	-2.00	21.00	-7.00
	3.00	-31.00	-69.00	12.00	-10.00	19.00	2.00
	-2.00	0.00	-20.00	45.00	2.00	16.00	-14.00
	1.00	21.00	25.00	67.00	25.00	12.00	-11.00
	9.00	21.00	55.00	104.00	26.00	12.00	-16.00
	11.00	1.00	50.00	83.00	20.00	12.00	-21.00
	8.00	-28.00	59.00	43.00	16.00	4.00	-11.00
	7.00	-34.00	104.00	36.00	13.00	8.00	-19.00
	5.00	-16.00	97.00	37.00	9.00	2.00	-22.00
	0.00	7.00	84.00	38.00	6.00	-1.00	2.00
	-2.00	35.00	98.00	32.00	2.00	6.00	10.00
	0.00	73.00	164.00	19.00	2.00	11.00	1.00
	-3.00	90.00	130.00	16.00	1.00	6.00	-11.00
	-1.00	67.00	71.00	29.00	-10.00	7.00	3.00
	-4.00	50.00	-18.00	6.00	-22.00	0.00	21.00
	-3.00	46.00	-85.00	21.00	-7.00	4.00	8.00
	10.00	40.00	-114.00	-21.00	4.00	15.00	-7.00
	17.00	35.00	-178.00	-43.00	1.00	13.00	-47.00
	21.00	34.00	-166.00	-35.00	-18.00	10.00	-53.00
	22.00	27.00	-47.00	-7.00	-15.00	16.00	-32.00
	16.00	16.00	25.00	2.00	-4.00	20.00	-19.00
	12.00	2.00	35.00	-4.00	-2.00	15.00	-13.00
	15.00	-1.00	27.00	-19.00	-4.00	14.00	3.00
	6.00	1.00	55.00	-9.00	-2.00	18.00	3.00
	0.00	-10.00	56.00	-3.00	-6.00	23.00	-9.00
	-5.00	-10.00	-28.00	-16.00	-3.00	24.00	-14.00
	1.00	-5.00	-87.00	-6.00	7.00	30.00	-2.00
	2.00	-15.00	-125.00	-7.00	11.00	32.00	8.00
	3.00	-11.00	-144.00	-5.00	23.00	28.00	-4.00
	3.00	-10.00	-99.00	1.00	31.00	18.00	7.00
	-4.00	-8.00	-121.00	-64.00	36.00	8.00	2.00
	-11.00	-9.00	-143.00	-109.00	49.00	7.00	18.00
	-11.00	-18.00	-68.00	-109.00	56.00	5.00	18.00
	-11.00	-18.00	-35.00	-87.00	76.00	3.00	22.00
	-10.00	-6.00	-13.00	-93.00	87.00	4.00	27.00
	-12.00	30.00	-11.00	-87.00	77.00	12.00	26.00
	-1.00	31.00	-34.00	-40.00	61.00	11.00	36.00
	-8.00	57.00	10.00	23.00	43.00	11.00	40.00
	-12.00	69.00	8.00	50.00	38.00	13.00	39.00
	-10.00	60.00	-44.00	51.00	42.00	16.00	37.00
	-12.00	39.00	-69.00	63.00	21.00	5.00	32.00
	-13.00	29.00	-34.00	85.00	-2.00	8.00	39.00
	-21.00	36.00	25.00	93.00	-10.00	20.00	43.00
	-24.00	30.00	147.00	82.00	-27.00	15.00	37.00
	-25.00	-3.00	150.00	37.00	-24.00	9.00	28.00
	-19.00	-16.00	140.00	37.00	-12.00	6.00	16.00
	-16.00	10.00	101.00	51.00	0.00	18.00	31.00
	-20.00	18.00	22.00	37.00	4.00	15.00	17.00
	-20.00	21.00	-70.00	14.00	0.00	0.00	3.00
	-13.00	16.00	-119.00	11.00	-10.00	-10.00	-4.00
	-8.00	-5.00	-143.00	-12.00	-10.00	-17.00	-14.00
	-6.00	-7.00	-85.00	-2.00	1.00	-10.00	-12.00
	-1.00	-20.00	-27.00	23.00	36.00	1.00	-68.00
	2.00	-27.00	26.00	43.00	56.00	8.00	-85.00
	-2.00	-4.00	110.00	48.00	44.00	16.00	-43.00
	-10.00	24.00	146.00	52.00	33.00	11.00	-40.00
	-10.00	46.00	125.00	39.00	18.00	6.00	-35.00
	-11.00	53.00	58.00	16.00	9.00	6.00	-30.00
	-4.00	31.00	8.00	1.00	7.00	11.00	-36.00
	1.00	4.00	-11.00	6.00	-2.00	8.00	-34.00
	8.00	-8.00	-5.00	23.00	-9.00	10.00	-35.00
	9.00	9.00	-13.00	35.00	-7.00	6.00	-21.00
	12.00	28.00	-8.00	42.00	-6.00	3.00	0.00
	16.00	28.00	3.00	51.00	-18.00	-2.00	8.00
	11.00	26.00	3.00	32.00	-18.00	-7.00	8.00
	15.00	24.00	28.00	19.00	-2.00	-10.00	2.00
	12.00	31.00	47.00	-11.00	6.00	-4.00	-3.00
	11.00	25.00	49.00	-28.00	10.00	-3.00	-6.00
	13.00	9.00	56.00	-26.00	9.00	0.00	-8.00
	11.00	7.00	45.00	-21.00	13.00	4.00	0.00
	9.00	5.00	28.00	-11.00	17.00	1.00	10.00
	4.00	12.00	36.00	17.00	21.00	2.00	19.00
	7.00	9.00	37.00	31.00	22.00	7.00	30.00
	2.00	8.00	83.00	25.00	15.00	10.00	39.00
	7.00	-4.00	137.00	42.00	16.00	14.00	37.00
	7.00	-6.00	148.00	43.00	17.00	14.00	28.00
	12.00	2.00	114.00	46.00	15.00	15.00	30.00
	8.00	20.00	50.00	30.00	14.00	7.00	26.00
	9.00	4.00	7.00	38.00	11.00	-2.00	28.00
	14.00	-21.00	-19.00	8.00	6.00	-4.00	23.00
	12.00	-1.00	-71.00	-31.00	-4.00	-11.00	-4.00
	13.00	18.00	-118.00	-33.00	-16.00	-6.00	-32.00
	15.00	16.00	-117.00	-33.00	-17.00	-2.00	-38.00
	21.00	-2.00	-130.00	-50.00	-12.00	-2.00	-38.00
	19.00	7.00	-133.00	-77.00	3.00	-6.00	-26.00
	21.00	19.00	-132.00	-110.00	6.00	-12.00	-4.00
	24.00	15.00	-87.00	-113.00	9.00	-2.00	28.00
	18.00	-10.00	-60.00	-85.00	13.00	10.00	55.00
	16.00	-23.00	-31.00	-55.00	6.00	17.00	90.00
	15.00	-28.00	-10.00	-33.00	5.00	21.00	113.00
	11.00	-8.00	14.00	-5.00	7.00	30.00	129.00
	5.00	19.00	26.00	12.00	9.00	27.00	146.00
	1.00	49.00	10.00	24.00	13.00	20.00	130.00
	-5.00	85.00	8.00	55.00	17.00	12.00	122.00
	-3.00	86.00	-19.00	72.00	29.00	12.00	69.00
	-1.00	87.00	-47.00	59.00	36.00	9.00	35.00
	-3.00	59.00	-40.00	37.00	33.00	11.00	30.00
	-8.00	52.00	-9.00	4.00	37.00	20.00	-9.00
	-9.00	40.00	13.00	-30.00	34.00	26.00	-53.00
	-4.00	9.00	3.00	-31.00	24.00	26.00	-76.00
	2.00	-12.00	-25.00	1.00	13.00	19.00	-79.00
	1.00	2.00	2.00	30.00	4.00	17.00	-77.00
	-3.00	-6.00	21.00	32.00	-2.00	16.00	-71.00
	-1.00	-7.00	-14.00	24.00	-1.00	10.00	-44.00
	6.00	-7.00	-59.00	28.00	-2.00	5.00	-9.00
	10.00	-5.00	-98.00	21.00	-10.00	2.00	-13.00
	11.00	-40.00	-87.00	5.00	-7.00	-1.00	-33.00
	7.00	-70.00	55.00	23.00	1.00	6.00	-19.00
	-4.00	-73.00	352.00	55.00	2.00	25.00	2.00
	-13.00	-39.00	431.00	83.00	0.00	43.00	28.00
	-18.00	0.00	406.00	101.00	4.00	42.00	13.00
	-25.00	36.00	316.00	62.00	12.00	28.00	-10.00
	-25.00	51.00	201.00	30.00	8.00	14.00	-6.00
	-26.00	66.00	57.00	30.00	13.00	0.00	-5.00
	-31.00	58.00	-89.00	8.00	20.00	-8.00	-9.00
	-26.00	37.00	-223.00	-51.00	8.00	-14.00	-13.00
	-11.00	10.00	-287.00	-88.00	-21.00	-14.00	-16.00
	2.00	23.00	-312.00	-88.00	-4.00	-3.00	-24.00
	5.00	51.00	-275.00	-72.00	21.00	5.00	-16.00
	1.00	53.00	-205.00	-78.00	34.00	6.00	0.00
	7.00	23.00	-200.00	-95.00	48.00	1.00	15.00
	22.00	8.00	-143.00	-60.00	30.00	-9.00	29.00
	28.00	-10.00	-55.00	2.00	20.00	-11.00	49.00
	17.00	-13.00	-33.00	27.00	-3.00	-15.00	26.00
	8.00	3.00	-50.00	38.00	-15.00	-5.00	8.00
	6.00	22.00	-80.00	56.00	-13.00	11.00	2.00
	-7.00	36.00	-56.00	51.00	-22.00	15.00	-31.00
	-12.00	28.00	6.00	79.00	-32.00	13.00	-36.00
	-9.00	16.00	38.00	72.00	-24.00	18.00	-25.00
	-13.00	6.00	37.00	70.00	-11.00	10.00	-21.00
	-8.00	-10.00	-2.00	52.00	-10.00	-3.00	-19.00
	-3.00	-32.00	20.00	17.00	3.00	-4.00	-11.00
	-8.00	-43.00	1.00	-28.00	16.00	-8.00	-60.00
	-10.00	5.00	-19.00	-29.00	27.00	-12.00	-92.00
	1.00	44.00	-95.00	-46.00	37.00	-9.00	-82.00
	10.00	47.00	-81.00	-43.00	49.00	7.00	-73.00
	15.00	4.00	71.00	-19.00	51.00	8.00	-66.00
	1.00	8.00	152.00	28.00	40.00	2.00	-37.00
	-22.00	9.00	164.00	74.00	23.00	0.00	-16.00
	-33.00	21.00	104.00	56.00	3.00	-3.00	1.00
	-26.00	3.00	36.00	64.00	-11.00	-11.00	8.00
	-27.00	10.00	-2.00	42.00	-23.00	-13.00	27.00
	-35.00	26.00	-29.00	25.00	-47.00	-3.00	17.00
	-24.00	34.00	-13.00	17.00	-43.00	-1.00	-32.00
	-21.00	38.00	6.00	-21.00	-30.00	-1.00	-13.00
	-19.00	30.00	76.00	-43.00	-9.00	12.00	10.00
	-17.00	25.00	104.00	-68.00	9.00	26.00	2.00
	-21.00	29.00	70.00	-67.00	18.00	23.00	-16.00
	-21.00	23.00	21.00	-68.00	14.00	16.00	-28.00
	-16.00	19.00	62.00	-31.00	18.00	24.00	-21.00
	-20.00	13.00	128.00	-2.00	26.00	22.00	-9.00
	-26.00	16.00	157.00	21.00	28.00	5.00	-2.00
	-23.00	10.00	160.00	85.00	29.00	-5.00	-1.00
	-20.00	2.00	133.00	105.00	28.00	7.00	-3.00
	-28.00	-21.00	58.00	69.00	30.00	8.00	-7.00
	-24.00	-44.00	13.00	37.00	31.00	12.00	3.00
	-12.00	-70.00	-41.00	12.00	33.00	14.00	22.00
	-1.00	-71.00	-105.00	-2.00	33.00	9.00	27.00
	6.00	-68.00	-121.00	-12.00	34.00	0.00	31.00
	8.00	-44.00	-80.00	-6.00	29.00	1.00	26.00
	15.00	-22.00	-58.00	25.00	28.00	5.00	3.00
	14.00	-10.00	-49.00	34.00	29.00	9.00	-4.00
	9.00	-3.00	-39.00	32.00	25.00	13.00	0.00
	2.00	4.00	6.00	33.00	19.00	18.00	31.00
	1.00	15.00	43.00	23.00	19.00	13.00	33.00
	-8.00	-6.00	56.00	1.00	19.00	12.00	30.00
	-12.00	-5.00	44.00	-14.00	25.00	13.00	54.00
	-14.00	10.00	41.00	-49.00	39.00	13.00	17.00
	-20.00	11.00	170.00	-59.00	42.00	15.00	0.00
	-15.00	24.00	206.00	-60.00	36.00	12.00	14.00
	-16.00	73.00	211.00	-43.00	26.00	17.00	38.00
	-20.00	97.00	148.00	-35.00	17.00	20.00	33.00
	-31.00	86.00	97.00	23.00	13.00	21.00	9.00
	-32.00	76.00	47.00	71.00	7.00	18.00	8.00
	-25.00	56.00	-103.00	53.00	2.00	10.00	3.00
	-15.00	43.00	-233.00	18.00	-3.00	6.00	7.00
	-6.00	38.00	-320.00	-11.00	-20.00	-8.00	1.00
	1.00	21.00	-371.00	-16.00	-22.00	-11.00	-6.00
	7.00	26.00	-394.00	-45.00	-2.00	-7.00	5.00
	5.00	45.00	-375.00	-89.00	6.00	5.00	-6.00
	2.00	52.00	-308.00	-73.00	6.00	15.00	9.00
	-2.00	39.00	-189.00	-5.00	9.00	20.00	25.00
	-2.00	23.00	-40.00	52.00	9.00	23.00	31.00
	-3.00	15.00	78.00	54.00	10.00	12.00	-2.00
	-6.00	34.00	134.00	41.00	12.00	4.00	-11.00
	1.00	36.00	140.00	42.00	13.00	2.00	-18.00
	17.00	24.00	171.00	60.00	15.00	-5.00	-51.00
	13.00	31.00	138.00	71.00	12.00	-2.00	-30.00
	15.00	21.00	97.00	53.00	14.00	1.00	-11.00
	16.00	-17.00	124.00	54.00	9.00	11.00	-5.00
	20.00	-16.00	96.00	49.00	8.00	17.00	-11.00
	23.00	3.00	63.00	18.00	7.00	21.00	-14.00
	20.00	14.00	35.00	-13.00	11.00	28.00	-27.00
	27.00	35.00	25.00	-35.00	15.00	29.00	-16.00
	29.00	70.00	125.00	-23.00	18.00	23.00	2.00
	27.00	80.00	197.00	-4.00	17.00	21.00	10.00
	18.00	69.00	230.00	30.00	10.00	7.00	-3.00
	13.00	49.00	197.00	48.00	11.00	4.00	-24.00
	1.00	38.00	134.00	24.00	11.00	16.00	-8.00
	-15.00	44.00	86.00	15.00	8.00	13.00	-20.00
	-15.00	21.00	32.00	13.00	4.00	10.00	-9.00
	-15.00	-1.00	-107.00	-50.00	5.00	3.00	-3.00
	-8.00	-8.00	-180.00	-72.00	17.00	2.00	1.00
	9.00	-16.00	-148.00	-49.00	19.00	6.00	2.00
	22.00	-24.00	-96.00	-31.00	19.00	5.00	-3.00
	28.00	-11.00	-39.00	7.00	16.00	9.00	-14.00
	28.00	-6.00	-28.00	23.00	30.00	3.00	-11.00
	39.00	-27.00	-19.00	38.00	38.00	-11.00	-3.00
	54.00	-36.00	-7.00	66.00	33.00	-16.00	-6.00
	66.00	-14.00	-58.00	44.00	36.00	-13.00	8.00
	74.00	18.00	-97.00	32.00	25.00	-20.00	2.00
	71.00	14.00	-51.00	32.00	1.00	-15.00	-15.00
	67.00	33.00	12.00	7.00	-12.00	1.00	-23.00
	64.00	36.00	18.00	-6.00	-28.00	7.00	-44.00
	69.00	24.00	35.00	10.00	-40.00	16.00	-42.00
	73.00	-5.00	44.00	38.00	-38.00	29.00	-33.00
	78.00	-12.00	25.00	47.00	-29.00	42.00	0.00
	75.00	-3.00	56.00	66.00	-22.00	44.00	14.00
	64.00	18.00	106.00	65.00	-6.00	39.00	34.00
	62.00	26.00	112.00	48.00	4.00	33.00	30.00
	51.00	21.00	75.00	-18.00	16.00	15.00	21.00
	40.00	28.00	109.00	-35.00	46.00	-2.00	-5.00
	49.00	10.00	187.00	-10.00	62.00	-16.00	0.00
	48.00	39.00	83.00	-37.00	88.00	-10.00	1.00
	48.00	30.00	-21.00	-36.00	83.00	-1.00	16.00
	41.00	18.00	-108.00	-9.00	65.00	-2.00	7.00
	19.00	-2.00	-124.00	28.00	40.00	-6.00	9.00
	-10.00	-25.00	-150.00	3.00	16.00	-3.00	5.00
	-47.00	-41.00	-185.00	-25.00	0.00	-7.00	8.00
	-72.00	-27.00	-170.00	-63.00	-15.00	-12.00	37.00
	-96.00	-51.00	-188.00	-106.00	-30.00	-16.00	38.00
	-136.00	-46.00	-99.00	-84.00	-56.00	-13.00	66.00
	-180.00	-9.00	-20.00	-68.00	-72.00	-10.00	79.00
	-196.00	16.00	15.00	-63.00	-69.00	-2.00	65.00
	-196.00	38.00	42.00	-17.00	-39.00	8.00	34.00
	-188.00	52.00	15.00	8.00	-3.00	9.00	-8.00
	-169.00	65.00	24.00	51.00	18.00	18.00	20.00
	-144.00	69.00	4.00	42.00	28.00	27.00	23.00
	-109.00	52.00	16.00	46.00	34.00	25.00	37.00
	-84.00	34.00	69.00	72.00	31.00	32.00	24.00
	-65.00	18.00	196.00	113.00	30.00	29.00	3.00
	-42.00	2.00	267.00	125.00	13.00	18.00	0.00
	-16.00	-12.00	221.00	129.00	-18.00	14.00	12.00
	7.00	-17.00	138.00	108.00	-8.00	18.00	5.00
	26.00	-37.00	175.00	69.00	1.00	18.00	15.00
	40.00	-33.00	259.00	43.00	0.00	18.00	31.00
	64.00	-35.00	175.00	-24.00	13.00	17.00	49.00
	86.00	-37.00	34.00	-35.00	45.00	29.00	53.00
	97.00	-26.00	-82.00	-19.00	54.00	32.00	79.00
	87.00	7.00	-96.00	10.00	39.00	35.00	87.00
	95.00	22.00	-162.00	3.00	35.00	29.00	65.00
	105.00	25.00	-268.00	-6.00	39.00	18.00	11.00
	120.00	24.00	-268.00	-2.00	26.00	16.00	-9.00
	118.00	0.00	-229.00	-14.00	5.00	4.00	-33.00
	116.00	0.00	-138.00	-31.00	-11.00	-2.00	-10.00
	91.00	36.00	-100.00	-40.00	-7.00	-12.00	-34.00
	79.00	56.00	-128.00	-37.00	-8.00	-16.00	-19.00
	85.00	71.00	-204.00	-60.00	-14.00	-15.00	-20.00
	100.00	77.00	-215.00	-82.00	-14.00	-13.00	-12.00
	91.00	80.00	-169.00	-49.00	1.00	0.00	-9.00
	67.00	58.00	-54.00	1.00	11.00	10.00	-12.00
	53.00	3.00	94.00	60.00	-1.00	18.00	-28.00
	34.00	-46.00	181.00	90.00	8.00	27.00	-32.00
	23.00	-64.00	201.00	116.00	22.00	29.00	-23.00
	11.00	-50.00	299.00	177.00	23.00	33.00	-25.00
	-5.00	-10.00	305.00	137.00	26.00	36.00	-8.00
	-12.00	18.00	144.00	37.00	37.00	30.00	-24.00
	-22.00	44.00	-50.00	-29.00	38.00	15.00	-11.00
	-28.00	53.00	-141.00	-41.00	27.00	16.00	10.00
	-20.00	-5.00	-184.00	-57.00	21.00	13.00	14.00
	-6.00	-58.00	-206.00	-72.00	25.00	16.00	18.00
	3.00	-41.00	-214.00	-99.00	25.00	3.00	8.00
	-11.00	-15.00	-65.00	-49.00	36.00	-7.00	5.00
	-26.00	1.00	50.00	2.00	49.00	5.00	14.00
	-19.00	-6.00	98.00	36.00	56.00	11.00	-4.00
	-16.00	15.00	68.00	40.00	58.00	13.00	-8.00
	-15.00	35.00	49.00	58.00	48.00	12.00	-27.00
	-18.00	40.00	89.00	77.00	41.00	2.00	-37.00
	-25.00	8.00	126.00	59.00	27.00	-16.00	-40.00
	-34.00	28.00	146.00	31.00	22.00	-15.00	-73.00
	-34.00	29.00	158.00	2.00	15.00	-12.00	-74.00
	-24.00	32.00	147.00	22.00	-5.00	-12.00	-35.00
	8.00	22.00	50.00	5.00	-7.00	-5.00	9.00
	21.00	7.00	-33.00	-16.00	7.00	0.00	-13.00
	18.00	-17.00	-49.00	0.00	10.00	-3.00	-10.00
	11.00	-20.00	-30.00	35.00	6.00	-2.00	6.00
	-2.00	-21.00	-23.00	32.00	8.00	2.00	5.00
	-10.00	11.00	20.00	51.00	11.00	11.00	9.00
	-20.00	34.00	69.00	58.00	8.00	22.00	-5.00
	-34.00	57.00	106.00	50.00	6.00	23.00	-13.00
	-52.00	92.00	218.00	14.00	6.00	19.00	-8.00
	-72.00	92.00	317.00	-10.00	0.00	22.00	-4.00
	-82.00	18.00	194.00	-26.00	2.00	16.00	-6.00
	-73.00	-7.00	110.00	8.00	4.00	5.00	-2.00
	-62.00	-3.00	82.00	34.00	3.00	-1.00	-4.00
	-63.00	13.00	65.00	23.00	-3.00	3.00	-5.00
	-69.00	34.00	-6.00	22.00	-4.00	8.00	-3.00
	-88.00	49.00	-171.00	-38.00	4.00	-1.00	-20.00
	-102.00	69.00	-226.00	-53.00	-1.00	-2.00	9.00
	-107.00	65.00	-313.00	-90.00	3.00	-8.00	7.00
	-98.00	17.00	-319.00	-88.00	3.00	-9.00	-6.00
	-92.00	29.00	-326.00	-67.00	4.00	-13.00	-7.00
	-83.00	26.00	-396.00	-90.00	6.00	-25.00	1.00
	-67.00	12.00	-319.00	-62.00	8.00	-16.00	6.00
	-51.00	22.00	-252.00	-11.00	6.00	2.00	19.00
	-43.00	1.00	-185.00	1.00	9.00	11.00	16.00
	-36.00	-9.00	-134.00	-4.00	14.00	11.00	10.00
	-29.00	5.00	-78.00	1.00	16.00	14.00	18.00
	-27.00	4.00	-31.00	28.00	18.00	15.00	22.00
	-10.00	-8.00	20.00	60.00	18.00	18.00	22.00
	3.00	-28.00	14.00	79.00	18.00	16.00	2.00
	13.00	-43.00	-58.00	58.00	20.00	15.00	7.00
	27.00	-42.00	-60.00	47.00	23.00	11.00	-10.00
	28.00	-49.00	34.00	44.00	30.00	11.00	-41.00
	27.00	-24.00	125.00	52.00	32.00	15.00	-7.00
	24.00	8.00	143.00	45.00	32.00	14.00	9.00
	29.00	28.00	140.00	49.00	40.00	26.00	9.00
	34.00	32.00	125.00	48.00	35.00	25.00	2.00
	33.00	28.00	116.00	55.00	29.00	25.00	-10.00
	31.00	29.00	84.00	42.00	23.00	22.00	-74.00
	35.00	26.00	34.00	20.00	15.00	17.00	-74.00
	33.00	24.00	58.00	24.00	24.00	21.00	-48.00
	34.00	-4.00	62.00	12.00	17.00	20.00	-38.00
	39.00	-28.00	121.00	4.00	10.00	18.00	-42.00
	44.00	-34.00	147.00	-13.00	8.00	22.00	-29.00
	46.00	-31.00	165.00	4.00	2.00	24.00	-14.00
	44.00	-5.00	179.00	20.00	-10.00	28.00	12.00
	37.00	20.00	152.00	11.00	-2.00	34.00	33.00
	29.00	44.00	91.00	0.00	5.00	33.00	59.00
	19.00	54.00	-21.00	-38.00	16.00	31.00	82.00
	16.00	37.00	-71.00	-37.00	22.00	33.00	85.00
	16.00	29.00	-63.00	-9.00	15.00	25.00	78.00
	17.00	44.00	-11.00	31.00	13.00	7.00	69.00
	21.00	34.00	23.00	64.00	10.00	1.00	36.00
	6.00	42.00	14.00	81.00	5.00	3.00	19.00
	-4.00	24.00	12.00	85.00	6.00	-2.00	16.00
	-7.00	14.00	17.00	108.00	6.00	-17.00	23.00
	-17.00	-4.00	3.00	62.00	9.00	-35.00	23.00
	-15.00	2.00	33.00	30.00	9.00	-52.00	14.00
	-2.00	27.00	34.00	-25.00	7.00	-38.00	-1.00
	8.00	53.00	90.00	-60.00	8.00	-20.00	-11.00
	16.00	71.00	136.00	-59.00	13.00	-6.00	-26.00
	12.00	48.00	141.00	-45.00	24.00	3.00	-32.00
	6.00	31.00	139.00	-51.00	43.00	-2.00	-21.00
	9.00	48.00	117.00	-47.00	39.00	-8.00	-23.00
	19.00	56.00	38.00	-49.00	47.00	0.00	-31.00
	25.00	54.00	-97.00	-57.00	49.00	9.00	-38.00
	29.00	57.00	-212.00	-63.00	44.00	14.00	-45.00
	38.00	59.00	-320.00	-43.00	33.00	6.00	-31.00
	50.00	38.00	-305.00	-6.00	16.00	6.00	-3.00
	68.00	8.00	-242.00	1.00	-3.00	4.00	25.00
	78.00	5.00	-195.00	-15.00	-19.00	4.00	50.00
	87.00	7.00	-109.00	-3.00	-37.00	1.00	77.00
	85.00	-15.00	-84.00	-27.00	-49.00	-3.00	120.00
	73.00	-44.00	-69.00	-84.00	-23.00	-9.00	89.00
	69.00	-47.00	-48.00	-96.00	5.00	1.00	57.00
	72.00	-42.00	-6.00	-65.00	10.00	4.00	47.00
	72.00	-37.00	46.00	-21.00	-6.00	2.00	84.00
	72.00	-27.00	81.00	-2.00	-1.00	19.00	64.00
	62.00	-27.00	200.00	15.00	-5.00	22.00	75.00
	53.00	-55.00	381.00	59.00	-20.00	22.00	40.00
	49.00	-60.00	448.00	74.00	-3.00	23.00	45.00
	52.00	-80.00	321.00	25.00	53.00	29.00	-1.00
	47.00	-56.00	151.00	1.00	64.00	26.00	-66.00
	34.00	-30.00	-10.00	-34.00	52.00	14.00	-74.00
	11.00	7.00	-148.00	-54.00	41.00	0.00	-50.00
	1.00	30.00	-186.00	-32.00	13.00	-13.00	-28.00
	-3.00	34.00	-187.00	-16.00	-2.00	-24.00	-15.00
	-5.00	28.00	-120.00	43.00	-12.00	-26.00	-11.00
	-14.00	-6.00	15.00	102.00	-20.00	-20.00	-20.00
	-24.00	-9.00	98.00	74.00	-27.00	-6.00	-29.00
	-34.00	6.00	139.00	60.00	-34.00	-5.00	-1.00
	-59.00	26.00	99.00	63.00	-46.00	-1.00	-2.00
	-86.00	22.00	-84.00	-4.00	-29.00	0.00	11.00
	-92.00	13.00	-185.00	-45.00	-2.00	12.00	4.00
	-89.00	27.00	-177.00	-39.00	-6.00	27.00	-15.00
	-93.00	56.00	-119.00	-26.00	-2.00	35.00	-38.00
	-109.00	100.00	-89.00	-47.00	1.00	45.00	-56.00
	-120.00	134.00	39.00	-34.00	9.00	49.00	-98.00
	-137.00	95.00	178.00	-44.00	28.00	42.00	-141.00
	-146.00	18.00	239.00	-33.00	43.00	38.00	-135.00
	-137.00	-79.00	226.00	-23.00	48.00	30.00	-135.00
	-122.00	-114.00	166.00	-30.00	50.00	21.00	-137.00
	-117.00	-62.00	103.00	-53.00	61.00	6.00	-139.00
	-91.00	31.00	-4.00	-88.00	60.00	-11.00	-151.00
	-66.00	108.00	-98.00	-69.00	46.00	-15.00	-140.00
	-28.00	119.00	-228.00	-59.00	42.00	-7.00	-121.00
	12.00	37.00	-314.00	-84.00	29.00	-3.00	-109.00
	18.00	-48.00	-220.00	-30.00	6.00	-2.00	-80.00
	19.00	-52.00	-82.00	14.00	-19.00	-3.00	-71.00
	15.00	-14.00	26.00	40.00	-20.00	2.00	-99.00
	18.00	44.00	62.00	68.00	-5.00	9.00	-79.00
	19.00	70.00	70.00	91.00	0.00	14.00	-74.00
	35.00	40.00	116.00	79.00	-4.00	24.00	-66.00
	53.00	-6.00	141.00	86.00	-25.00	31.00	-46.00
	35.00	17.00	153.00	66.00	-29.00	42.00	-5.00
	13.00	24.00	70.00	36.00	3.00	51.00	-4.00
	12.00	57.00	17.00	24.00	63.00	49.00	-5.00
	19.00	54.00	-56.00	15.00	77.00	40.00	13.00
	35.00	36.00	-110.00	19.00	74.00	22.00	30.00
	37.00	16.00	-162.00	-23.00	61.00	-16.00	50.00
	25.00	23.00	-153.00	-26.00	25.00	-26.00	57.00
	30.00	35.00	-46.00	37.00	1.00	-10.00	49.00
	30.00	-1.00	28.00	87.00	-9.00	4.00	54.00
	27.00	22.00	96.00	78.00	-18.00	7.00	59.00
	18.00	41.00	102.00	59.00	-36.00	1.00	90.00
	15.00	10.00	84.00	81.00	-72.00	1.00	99.00
	22.00	-11.00	-35.00	87.00	-77.00	1.00	102.00
	26.00	-6.00	-65.00	108.00	-62.00	8.00	113.00
	33.00	-6.00	-62.00	71.00	-38.00	21.00	120.00
	30.00	-9.00	-149.00	-7.00	-15.00	23.00	109.00
	29.00	0.00	-148.00	-8.00	-6.00	30.00	55.00
	21.00	11.00	-14.00	48.00	-2.00	40.00	42.00
	18.00	0.00	81.00	48.00	9.00	31.00	58.00
	12.00	-24.00	100.00	-34.00	20.00	18.00	42.00
	5.00	-29.00	112.00	-57.00	38.00	17.00	63.00
	6.00	-14.00	125.00	-67.00	49.00	25.00	71.00
	-4.00	40.00	8.00	-91.00	49.00	18.00	80.00
	-16.00	76.00	-119.00	-95.00	54.00	3.00	54.00
	-9.00	73.00	-139.00	-89.00	51.00	-11.00	54.00
	8.00	12.00	-84.00	-97.00	54.00	2.00	86.00
	4.00	-20.00	7.00	-75.00	56.00	0.00	80.00
	-6.00	9.00	-21.00	-49.00	54.00	-10.00	65.00
	-9.00	22.00	-65.00	-22.00	46.00	-12.00	68.00
	-13.00	18.00	-17.00	31.00	44.00	-7.00	30.00
	-18.00	24.00	35.00	62.00	41.00	-7.00	-14.00
	-13.00	29.00	66.00	59.00	39.00	-3.00	-21.00
	-12.00	21.00	79.00	72.00	37.00	-8.00	-66.00
	-12.00	19.00	92.00	27.00	40.00	-11.00	-97.00
	-4.00	18.00	94.00	-13.00	34.00	-15.00	-100.00
	5.00	43.00	50.00	-40.00	26.00	-16.00	-98.00
	7.00	68.00	-44.00	-43.00	20.00	-29.00	-99.00
	12.00	42.00	-64.00	-9.00	10.00	-32.00	-97.00
	4.00	0.00	8.00	22.00	19.00	-1.00	-103.00
	3.00	-31.00	59.00	30.00	25.00	19.00	-74.00
	-4.00	-51.00	111.00	38.00	12.00	3.00	-33.00
	-13.00	-74.00	172.00	51.00	11.00	8.00	-8.00
	-17.00	-53.00	134.00	58.00	7.00	15.00	3.00
	-13.00	-21.00	66.00	57.00	9.00	14.00	4.00
	-13.00	12.00	-29.00	56.00	9.00	9.00	20.00
	-12.00	31.00	-134.00	62.00	9.00	4.00	22.00
	-11.00	3.00	-238.00	48.00	5.00	-5.00	32.00
	-9.00	-10.00	-243.00	42.00	5.00	-6.00	35.00
	5.00	1.00	-219.00	22.00	1.00	-12.00	20.00
	11.00	7.00	-48.00	12.00	-2.00	-9.00	10.00
	2.00	38.00	107.00	7.00	-7.00	3.00	0.00
	-13.00	57.00	155.00	17.00	-9.00	15.00	-2.00
	-24.00	61.00	119.00	20.00	-8.00	28.00	3.00
	-28.00	42.00	74.00	23.00	-4.00	35.00	-13.00
	-41.00	-21.00	46.00	21.00	2.00	34.00	-10.00
	-42.00	-21.00	12.00	-8.00	1.00	23.00	-31.00
	-22.00	-10.00	63.00	-21.00	-5.00	8.00	-56.00
	-17.00	34.00	-52.00	-49.00	-8.00	9.00	-53.00
	-8.00	43.00	-66.00	-55.00	-7.00	7.00	-56.00
	0.00	-1.00	-30.00	-68.00	-11.00	1.00	-60.00
	-6.00	9.00	20.00	-36.00	-17.00	2.00	-48.00
	1.00	10.00	33.00	-18.00	-22.00	-3.00	-30.00
	29.00	10.00	50.00	22.00	-16.00	-11.00	-24.00
	48.00	61.00	-9.00	26.00	-12.00	-19.00	-15.00
	54.00	72.00	-83.00	44.00	-7.00	-22.00	-7.00
	54.00	28.00	41.00	79.00	3.00	-5.00	6.00
	53.00	4.00	86.00	84.00	-2.00	15.00	13.00
	47.00	-9.00	84.00	63.00	-6.00	25.00	20.00
	32.00	-15.00	72.00	46.00	-4.00	36.00	77.00
	22.00	11.00	66.00	15.00	0.00	32.00	120.00
	7.00	34.00	12.00	-13.00	4.00	20.00	162.00
	-6.00	18.00	-55.00	-55.00	15.00	15.00	168.00
	-23.00	51.00	10.00	-24.00	21.00	6.00	141.00
	-23.00	54.00	-14.00	-30.00	26.00	5.00	88.00
	-25.00	80.00	-61.00	8.00	26.00	-4.00	24.00
	-32.00	88.00	-104.00	22.00	26.00	-8.00	6.00
	-30.00	66.00	-63.00	31.00	27.00	6.00	43.00
	-41.00	25.00	-6.00	34.00	26.00	17.00	36.00
	-57.00	-6.00	61.00	42.00	18.00	19.00	28.00
	-68.00	-32.00	136.00	30.00	24.00	12.00	10.00
	-59.00	-40.00	183.00	19.00	13.00	20.00	-5.00
	-57.00	-14.00	166.00	-14.00	1.00	21.00	21.00
	-57.00	34.00	172.00	-20.00	17.00	26.00	21.00
	-46.00	22.00	93.00	-35.00	1.00	36.00	21.00
	-31.00	-12.00	44.00	-12.00	1.00	52.00	27.00
	-28.00	-36.00	63.00	35.00	3.00	43.00	34.00
	-24.00	-35.00	92.00	86.00	0.00	36.00	58.00
	-18.00	-72.00	-16.00	71.00	6.00	13.00	51.00
	-5.00	-90.00	-167.00	12.00	-1.00	3.00	57.00
	2.00	-59.00	-311.00	-40.00	-27.00	-5.00	74.00
	15.00	14.00	-313.00	-45.00	-20.00	22.00	90.00
	34.00	58.00	-262.00	-72.00	7.00	15.00	97.00
	40.00	70.00	-211.00	-124.00	5.00	23.00	105.00
	19.00	60.00	-74.00	-107.00	30.00	33.00	95.00
	-14.00	0.00	-17.00	-59.00	42.00	31.00	40.00
	-2.00	-45.00	16.00	-66.00	41.00	39.00	12.00
	20.00	-15.00	-46.00	-100.00	32.00	43.00	-61.00
	22.00	10.00	-76.00	-67.00	13.00	38.00	-103.00
	15.00	9.00	-74.00	-3.00	4.00	24.00	-78.00
	14.00	26.00	-43.00	63.00	-3.00	-13.00	-56.00
	18.00	23.00	-1.00	106.00	-5.00	-21.00	-40.00
	19.00	27.00	96.00	119.00	-5.00	-27.00	-36.00
	21.00	19.00	42.00	61.00	-6.00	-53.00	-37.00
	30.00	21.00	-57.00	58.00	-7.00	-53.00	-35.00
	35.00	46.00	-120.00	79.00	-8.00	-43.00	-51.00
	24.00	63.00	-53.00	70.00	-9.00	-33.00	-80.00
	14.00	66.00	68.00	82.00	-7.00	-21.00	-112.00
	15.00	72.00	158.00	79.00	11.00	5.00	-94.00
	8.00	59.00	262.00	90.00	16.00	11.00	-59.00
	-3.00	40.00	292.00	84.00	22.00	9.00	-26.00
	6.00	11.00	197.00	63.00	53.00	3.00	-13.00
	-3.00	2.00	102.00	31.00	100.00	-4.00	14.00
	-4.00	23.00	-33.00	-12.00	89.00	-17.00	46.00
	5.00	21.00	-123.00	-27.00	85.00	-20.00	80.00
	8.00	16.00	-129.00	-39.00	107.00	28.00	70.00
	9.00	3.00	-62.00	-51.00	81.00	36.00	49.00
	2.00	-1.00	34.00	-32.00	64.00	32.00	-16.00
	-2.00	-42.00	112.00	-12.00	58.00	27.00	-43.00
	-8.00	-81.00	115.00	4.00	36.00	19.00	-25.00
	-18.00	-112.00	72.00	3.00	9.00	5.00	-28.00
	-3.00	-57.00	96.00	3.00	-23.00	-4.00	-11.00
	23.00	-26.00	178.00	24.00	-32.00	-5.00	15.00
	35.00	38.00	268.00	37.00	-25.00	18.00	3.00
	26.00	68.00	156.00	20.00	-19.00	31.00	-23.00
	23.00	68.00	62.00	33.00	-19.00	29.00	-26.00
	21.00	42.00	-92.00	13.00	-5.00	24.00	-44.00
	17.00	21.00	-255.00	-23.00	4.00	14.00	-23.00
	23.00	22.00	-291.00	-39.00	10.00	8.00	-6.00
	17.00	25.00	-284.00	-18.00	7.00	6.00	-12.00
	13.00	16.00	-198.00	30.00	-1.00	3.00	-18.00
	4.00	-2.00	-88.00	79.00	-8.00	3.00	-26.00
	-7.00	-12.00	34.00	110.00	-12.00	9.00	11.00
	-9.00	17.00	-10.00	86.00	-12.00	11.00	10.00
	7.00	40.00	-57.00	68.00	-19.00	10.00	-38.00
	7.00	63.00	-180.00	19.00	-22.00	4.00	-39.00
	9.00	70.00	-212.00	-25.00	0.00	1.00	-25.00
	12.00	44.00	-150.00	-28.00	0.00	2.00	1.00
	12.00	18.00	-46.00	-31.00	-2.00	2.00	4.00
	1.00	23.00	78.00	-17.00	-4.00	2.00	-1.00
	-6.00	9.00	194.00	-13.00	3.00	5.00	5.00
	4.00	18.00	291.00	6.00	-3.00	12.00	-8.00
	1.00	25.00	226.00	10.00	-14.00	12.00	-2.00
	-7.00	29.00	235.00	35.00	-15.00	18.00	-9.00
	-7.00	11.00	239.00	50.00	1.00	34.00	-13.00
	-8.00	15.00	105.00	-20.00	12.00	27.00	-18.00
	-6.00	10.00	-62.00	-68.00	12.00	9.00	0.00
	0.00	6.00	-168.00	-87.00	15.00	-5.00	1.00
	11.00	9.00	-290.00	-146.00	23.00	-10.00	8.00
	19.00	-20.00	-343.00	-151.00	25.00	-7.00	3.00
	20.00	-63.00	-237.00	-98.00	31.00	-7.00	4.00
	30.00	-80.00	-103.00	-34.00	27.00	0.00	7.00
	28.00	-78.00	-28.00	-7.00	25.00	8.00	8.00
	19.00	-28.00	-43.00	-21.00	26.00	3.00	10.00
	17.00	40.00	0.00	-22.00	24.00	-7.00	9.00
	14.00	60.00	87.00	-22.00	13.00	-21.00	8.00
	13.00	43.00	118.00	-36.00	18.00	20.00	11.00
	2.00	38.00	133.00	-32.00	22.00	47.00	16.00
	-9.00	57.00	115.00	-24.00	7.00	31.00	20.00
	-12.00	59.00	104.00	-47.00	3.00	21.00	19.00
	-12.00	58.00	205.00	-11.00	0.00	8.00	19.00
	-18.00	60.00	304.00	34.00	8.00	12.00	15.00
	-31.00	40.00	403.00	64.00	13.00	13.00	13.00
	-32.00	26.00	376.00	69.00	4.00	14.00	-2.00
	-31.00	24.00	283.00	82.00	-3.00	17.00	-45.00
	-30.00	23.00	275.00	131.00	-1.00	12.00	-30.00
	-29.00	16.00	133.00	103.00	0.00	3.00	-34.00
	-7.00	38.00	-118.00	59.00	1.00	4.00	-40.00
	11.00	-3.00	-245.00	14.00	9.00	-2.00	-32.00
	24.00	-45.00	-202.00	-13.00	11.00	6.00	-52.00
	18.00	-20.00	-197.00	-19.00	11.00	9.00	-61.00
	11.00	12.00	-161.00	-22.00	4.00	18.00	-25.00
	14.00	9.00	-166.00	-52.00	-7.00	33.00	11.00
	10.00	-40.00	-215.00	-61.00	0.00	36.00	-9.00
	-12.00	-40.00	-253.00	-46.00	8.00	16.00	13.00
	-17.00	-22.00	-246.00	-24.00	9.00	19.00	-24.00
	-6.00	-20.00	-235.00	35.00	28.00	16.00	-65.00
	10.00	-13.00	-112.00	83.00	17.00	20.00	-6.00
	6.00	-56.00	-5.00	73.00	21.00	45.00	10.00
	-6.00	-64.00	162.00	126.00	18.00	26.00	-7.00
	-17.00	-51.00	203.00	128.00	12.00	12.00	-8.00
	-13.00	-34.00	138.00	67.00	8.00	10.00	9.00
	-2.00	9.00	57.00	-9.00	7.00	7.00	17.00
	-5.00	54.00	-23.00	-17.00	4.00	-10.00	6.00
	-15.00	41.00	-78.00	-45.00	-2.00	-17.00	10.00
	-16.00	91.00	-144.00	-64.00	-3.00	-2.00	10.00
	-8.00	143.00	-149.00	-15.00	4.00	3.00	4.00
	12.00	99.00	-55.00	-5.00	6.00	12.00	20.00
	3.00	90.00	126.00	71.00	8.00	20.00	28.00
	-21.00	77.00	256.00	111.00	10.00	19.00	18.00
	-29.00	7.00	243.00	103.00	10.00	5.00	18.00
	-36.00	-49.00	207.00	34.00	11.00	-16.00	22.00
	-29.00	-81.00	171.00	-23.00	13.00	-35.00	13.00
	-6.00	-34.00	-59.00	-138.00	19.00	-39.00	22.00
	11.00	-3.00	-6.00	-115.00	16.00	-26.00	21.00
	17.00	-5.00	-2.00	-49.00	7.00	-11.00	15.00
	-4.00	-17.00	-45.00	-33.00	6.00	-7.00	28.00
	-17.00	-61.00	-139.00	-32.00	5.00	-14.00	21.00
	-13.00	-1.00	-204.00	-29.00	12.00	-13.00	33.00
	-5.00	45.00	-215.00	-14.00	13.00	-9.00	52.00
	11.00	96.00	-238.00	-2.00	-1.00	-7.00	6.00
	26.00	84.00	-221.00	-4.00	0.00	-7.00	-58.00
	28.00	84.00	-115.00	5.00	8.00	4.00	-45.00
	25.00	74.00	-13.00	52.00	14.00	26.00	-30.00
	1.00	66.00	25.00	80.00	22.00	42.00	-12.00
	-13.00	22.00	102.00	106.00	35.00	35.00	-23.00
	-24.00	-7.00	137.00	111.00	40.00	10.00	0.00
	-34.00	-9.00	240.00	127.00	33.00	2.00	25.00
	-33.00	-16.00	237.00	124.00	18.00	2.00	2.00
	-22.00	-25.00	229.00	111.00	-3.00	29.00	-41.00
	-10.00	6.00	106.00	14.00	-28.00	41.00	1.00
	-1.00	54.00	-16.00	-47.00	-14.00	38.00	25.00
	8.00	89.00	-98.00	-71.00	7.00	35.00	5.00
	6.00	83.00	-144.00	-124.00	12.00	18.00	-29.00
	1.00	63.00	-70.00	-91.00	20.00	9.00	-60.00
	1.00	46.00	72.00	-49.00	20.00	8.00	-18.00
	10.00	60.00	147.00	4.00	20.00	-10.00	-6.00
	12.00	54.00	137.00	29.00	11.00	-19.00	2.00
	12.00	62.00	35.00	40.00	29.00	29.00	-4.00
	-5.00	37.00	-117.00	49.00	29.00	13.00	13.00
	-14.00	7.00	-113.00	81.00	12.00	-1.00	9.00
	-16.00	-7.00	-11.00	71.00	16.00	1.00	12.00
	-6.00	-2.00	6.00	20.00	41.00	2.00	18.00
	10.00	10.00	-17.00	-5.00	42.00	3.00	8.00
	24.00	-1.00	-68.00	-20.00	36.00	7.00	10.00
	18.00	-18.00	-110.00	-6.00	32.00	7.00	-21.00
	1.00	-59.00	-193.00	-22.00	29.00	10.00	-26.00
	-4.00	-61.00	-242.00	-11.00	25.00	4.00	-15.00
	-5.00	-66.00	-233.00	12.00	19.00	-10.00	-12.00
	-8.00	-37.00	-75.00	6.00	-2.00	-19.00	11.00
	-6.00	-2.00	67.00	-7.00	-7.00	13.00	24.00
	-11.00	15.00	133.00	-17.00	-27.00	31.00	28.00
	-26.00	26.00	124.00	-14.00	-56.00	17.00	26.00
	-30.00	28.00	34.00	-40.00	-42.00	-10.00	12.00
	-35.00	30.00	26.00	-39.00	-32.00	22.00	9.00
	-33.00	22.00	-9.00	-34.00	-8.00	66.00	5.00
	-24.00	14.00	-46.00	-12.00	5.00	36.00	7.00
	-4.00	29.00	-91.00	-3.00	10.00	6.00	-2.00
	17.00	15.00	-67.00	2.00	12.00	2.00	-11.00
	28.00	-38.00	-1.00	5.00	10.00	6.00	-28.00
	32.00	-101.00	74.00	-6.00	16.00	6.00	-1.00
	32.00	-109.00	82.00	-24.00	16.00	5.00	5.00
	17.00	-86.00	97.00	-21.00	17.00	7.00	-18.00
	2.00	-33.00	130.00	-3.00	22.00	5.00	5.00
	-12.00	27.00	207.00	40.00	21.00	10.00	45.00
	-18.00	54.00	285.00	57.00	27.00	13.00	20.00
	-9.00	56.00	266.00	44.00	22.00	21.00	51.00
	-2.00	63.00	160.00	33.00	25.00	18.00	32.00
	-5.00	57.00	12.00	-4.00	29.00	1.00	-7.00
	6.00	31.00	-73.00	-13.00	24.00	1.00	-3.00
	17.00	-17.00	-162.00	-9.00	20.00	4.00	10.00
	26.00	-45.00	-174.00	23.00	20.00	16.00	15.00
	21.00	-33.00	-118.00	54.00	20.00	23.00	9.00
	3.00	19.00	-40.00	7.00	25.00	13.00	-9.00
	2.00	34.00	18.00	-53.00	33.00	3.00	-19.00
	1.00	56.00	-6.00	-136.00	23.00	-9.00	20.00
	1.00	43.00	-13.00	-167.00	23.00	-22.00	51.00
	25.00	37.00	76.00	-152.00	26.00	-9.00	63.00
	27.00	64.00	135.00	-82.00	32.00	21.00	56.00
	11.00	4.00	84.00	12.00	26.00	29.00	52.00
	8.00	-31.00	31.00	26.00	28.00	24.00	3.00
	4.00	-59.00	27.00	35.00	46.00	18.00	-8.00
	-8.00	-43.00	43.00	58.00	51.00	15.00	-8.00
	-18.00	7.00	68.00	82.00	33.00	2.00	-47.00
	-24.00	17.00	152.00	94.00	12.00	-20.00	-45.00
	-11.00	-9.00	200.00	39.00	-3.00	-28.00	-26.00
	-7.00	13.00	24.00	-6.00	-22.00	-39.00	-20.00
	3.00	86.00	-145.00	42.00	-32.00	-24.00	4.00
	12.00	98.00	-147.00	71.00	-33.00	2.00	19.00
	26.00	92.00	-227.00	51.00	-21.00	17.00	28.00
	46.00	72.00	-376.00	19.00	-13.00	5.00	40.00
	37.00	39.00	-243.00	32.00	0.00	-6.00	36.00
	15.00	21.00	-76.00	45.00	38.00	0.00	21.00
	12.00	-56.00	7.00	47.00	49.00	5.00	11.00
	1.00	-145.00	77.00	26.00	52.00	10.00	8.00
	-9.00	-162.00	127.00	57.00	53.00	23.00	5.00
	-26.00	-50.00	139.00	77.00	41.00	30.00	15.00
	-36.00	47.00	162.00	86.00	28.00	29.00	-27.00
	-39.00	119.00	53.00	33.00	7.00	30.00	-8.00
	-36.00	165.00	-21.00	22.00	-9.00	24.00	-6.00
	-41.00	141.00	9.00	5.00	-26.00	9.00	-30.00
	-47.00	77.00	45.00	-56.00	-35.00	1.00	-39.00
	-30.00	68.00	-40.00	-125.00	-18.00	11.00	-25.00
	-16.00	80.00	-151.00	-147.00	4.00	22.00	-11.00
	-13.00	80.00	-158.00	-77.00	22.00	8.00	-9.00
	14.00	53.00	-163.00	-14.00	29.00	-4.00	-21.00
	17.00	11.00	-201.00	38.00	24.00	-12.00	-31.00
	10.00	-50.00	-188.00	73.00	15.00	-23.00	-32.00
	19.00	-58.00	-112.00	87.00	-6.00	-19.00	-50.00
	41.00	4.00	-105.00	124.00	-27.00	-2.00	-50.00
	57.00	12.00	3.00	169.00	-34.00	2.00	-37.00
	49.00	3.00	118.00	160.00	-34.00	2.00	-31.00
	17.00	-2.00	170.00	113.00	-32.00	3.00	-30.00
	-18.00	3.00	193.00	61.00	-34.00	1.00	-57.00
	-27.00	9.00	262.00	53.00	-36.00	14.00	-50.00
	-15.00	-16.00	231.00	42.00	-36.00	22.00	-41.00
	0.00	-20.00	182.00	-10.00	-5.00	28.00	-21.00
	6.00	7.00	216.00	-49.00	15.00	33.00	6.00
	2.00	2.00	190.00	-51.00	26.00	32.00	-7.00
	3.00	29.00	4.00	-112.00	39.00	25.00	-34.00
	17.00	40.00	-99.00	-76.00	37.00	14.00	-18.00
	43.00	35.00	-58.00	0.00	43.00	25.00	-9.00
	45.00	35.00	-95.00	27.00	43.00	26.00	-11.00
	23.00	36.00	-75.00	54.00	41.00	26.00	-20.00
	11.00	4.00	-168.00	-27.00	47.00	8.00	-11.00
	-7.00	-8.00	-243.00	-78.00	55.00	-12.00	-14.00
	-6.00	1.00	-276.00	-102.00	57.00	-9.00	-2.00
	13.00	8.00	-247.00	-97.00	57.00	4.00	9.00
	25.00	-7.00	-39.00	-11.00	65.00	16.00	7.00
	17.00	-18.00	314.00	111.00	64.00	23.00	-21.00
	0.00	-7.00	500.00	237.00	57.00	27.00	-34.00
	-12.00	-54.00	415.00	240.00	49.00	31.00	-27.00
	-15.00	-22.00	224.00	109.00	48.00	26.00	-25.00
	-16.00	54.00	-105.00	8.00	47.00	20.00	-46.00
	-9.00	101.00	-441.00	-144.00	48.00	9.00	-48.00
	18.00	47.00	-590.00	-190.00	41.00	-1.00	-15.00
	26.00	27.00	-411.00	-170.00	39.00	-6.00	-14.00
	39.00	56.00	-272.00	-181.00	23.00	-4.00	-1.00
	42.00	52.00	-123.00	-46.00	0.00	-18.00	28.00
	24.00	30.00	-28.00	80.00	-9.00	-16.00	35.00
	12.00	7.00	69.00	104.00	9.00	-11.00	87.00
	-6.00	-5.00	94.00	147.00	45.00	-22.00	108.00
	-13.00	13.00	113.00	161.00	35.00	-18.00	116.00
	-24.00	4.00	95.00	154.00	17.00	-2.00	89.00
	-36.00	11.00	141.00	99.00	6.00	1.00	63.00
	-40.00	2.00	184.00	-2.00	-17.00	8.00	-2.00
	-42.00	-25.00	157.00	-79.00	-37.00	14.00	-34.00
	-36.00	-38.00	100.00	-93.00	-52.00	16.00	-61.00
	-40.00	-59.00	36.00	-107.00	-57.00	-2.00	-91.00
	-38.00	-31.00	14.00	-80.00	-50.00	-9.00	-111.00
	-30.00	42.00	9.00	-63.00	-41.00	-15.00	-103.00
	-10.00	66.00	12.00	-96.00	-47.00	-28.00	-82.00
	-2.00	99.00	99.00	-66.00	-47.00	-6.00	-50.00
	5.00	95.00	122.00	-39.00	-29.00	23.00	28.00
	7.00	54.00	96.00	-61.00	-3.00	44.00	93.00
	-1.00	13.00	43.00	-49.00	11.00	55.00	108.00
	-5.00	-82.00	11.00	-14.00	25.00	64.00	99.00
	0.00	-151.00	-43.00	-56.00	31.00	70.00	124.00
	21.00	-85.00	-32.00	-56.00	35.00	60.00	78.00
	13.00	4.00	7.00	-36.00	31.00	45.00	61.00
	9.00	27.00	61.00	-5.00	28.00	23.00	27.00
	-7.00	7.00	271.00	22.00	28.00	9.00	-4.00
	-21.00	-6.00	321.00	12.00	24.00	-11.00	13.00
	-33.00	3.00	360.00	57.00	12.00	-15.00	21.00
	-47.00	-11.00	323.00	76.00	18.00	12.00	15.00
	-31.00	-51.00	360.00	96.00	15.00	24.00	14.00
	-15.00	-50.00	295.00	59.00	8.00	-4.00	5.00
	-12.00	-31.00	169.00	33.00	7.00	-29.00	-89.00
	-10.00	-9.00	-77.00	-14.00	11.00	-27.00	-123.00
	-5.00	3.00	-324.00	-58.00	2.00	-27.00	-52.00
	-7.00	26.00	-211.00	-25.00	5.00	-23.00	-42.00
	-11.00	66.00	-142.00	-34.00	2.00	-10.00	-5.00
	-2.00	75.00	14.00	21.00	1.00	-2.00	-19.00
	-5.00	64.00	63.00	53.00	9.00	5.00	-36.00
	-10.00	65.00	-66.00	2.00	18.00	7.00	9.00
	-7.00	83.00	-183.00	-49.00	25.00	6.00	-41.00
	-6.00	80.00	-453.00	-106.00	20.00	-5.00	-70.00
	13.00	58.00	-646.00	-129.00	11.00	-25.00	-43.00
	38.00	16.00	-569.00	-151.00	7.00	-23.00	-7.00
	66.00	34.00	-396.00	-125.00	35.00	43.00	18.00
	76.00	37.00	-267.00	-93.00	30.00	28.00	39.00
	50.00	35.00	-116.00	-22.00	30.00	20.00	22.00
	18.00	44.00	2.00	27.00	25.00	33.00	-10.00
	-11.00	24.00	73.00	72.00	0.00	39.00	-49.00
	-18.00	-38.00	109.00	103.00	-13.00	28.00	-52.00
	-17.00	-27.00	110.00	79.00	-16.00	22.00	-42.00
	-9.00	20.00	69.00	26.00	-8.00	12.00	-39.00
	4.00	45.00	-49.00	-22.00	2.00	-9.00	-39.00
	5.00	50.00	-59.00	-17.00	-8.00	-13.00	-67.00
	15.00	67.00	-47.00	15.00	-35.00	-4.00	-155.00
	34.00	102.00	-65.00	36.00	-30.00	24.00	-192.00
	31.00	118.00	40.00	93.00	-22.00	0.00	-216.00
	18.00	106.00	200.00	149.00	-13.00	-17.00	-246.00
	14.00	77.00	284.00	122.00	25.00	-7.00	-291.00
	18.00	35.00	175.00	36.00	33.00	4.00	-320.00
	5.00	-24.00	69.00	25.00	34.00	0.00	-238.00
	-20.00	-99.00	36.00	1.00	30.00	-20.00	-133.00
	-9.00	-128.00	-19.00	-30.00	2.00	-42.00	-55.00
	-3.00	-86.00	-13.00	-4.00	-17.00	20.00	-45.00
	-8.00	-56.00	103.00	35.00	1.00	58.00	-22.00
	-16.00	-53.00	210.00	44.00	0.00	25.00	69.00
	-16.00	-80.00	175.00	25.00	-6.00	8.00	101.00
	-17.00	-47.00	12.00	2.00	-8.00	-21.00	50.00
	-13.00	12.00	-80.00	17.00	2.00	-39.00	61.00
	0.00	36.00	-67.00	9.00	31.00	-5.00	148.00
	18.00	16.00	-26.00	11.00	45.00	28.00	167.00
	30.00	3.00	116.00	45.00	28.00	31.00	194.00
	16.00	-36.00	256.00	43.00	25.00	23.00	204.00
	-5.00	-30.00	324.00	27.00	36.00	37.00	167.00
	-20.00	-15.00	358.00	45.00	20.00	58.00	137.00
	-11.00	-10.00	229.00	54.00	23.00	43.00	102.00
	2.00	-9.00	52.00	43.00	50.00	40.00	59.00
	7.00	-47.00	-75.00	83.00	52.00	30.00	93.00
	1.00	-23.00	-235.00	94.00	63.00	18.00	214.00
	5.00	-8.00	-196.00	91.00	62.00	11.00	258.00
	7.00	39.00	-159.00	78.00	51.00	17.00	319.00
	-19.00	77.00	-90.00	63.00	43.00	18.00	334.00
	-14.00	81.00	-16.00	4.00	43.00	0.00	345.00
	-4.00	80.00	-34.00	-43.00	36.00	-25.00	367.00
	9.00	75.00	-137.00	-68.00	26.00	-17.00	351.00
	8.00	57.00	-220.00	-70.00	10.00	-7.00	322.00
	24.00	30.00	-205.00	-65.00	9.00	-20.00	315.00
	19.00	40.00	-104.00	-54.00	-7.00	-53.00	298.00
	9.00	64.00	-74.00	-63.00	-30.00	-39.00	263.00
	9.00	70.00	-137.00	-79.00	10.00	26.00	232.00
	7.00	42.00	-157.00	-74.00	15.00	26.00	233.00
	9.00	12.00	-144.00	-55.00	11.00	45.00	224.00
	-9.00	-18.00	-176.00	-41.00	23.00	44.00	179.00
	-23.00	-49.00	-175.00	-24.00	31.00	27.00	172.00
	-28.00	-51.00	-128.00	-19.00	27.00	15.00	156.00
	-35.00	-33.00	-44.00	0.00	10.00	-23.00	121.00
	-42.00	-44.00	76.00	80.00	13.00	36.00	88.00
	-40.00	-17.00	97.00	82.00	17.00	46.00	53.00
	-35.00	16.00	220.00	89.00	-4.00	9.00	-2.00
	-21.00	62.00	283.00	126.00	-19.00	8.00	-10.00
	-8.00	64.00	240.00	104.00	-20.00	5.00	-27.00
	-1.00	36.00	120.00	23.00	-28.00	6.00	-45.00
	-14.00	37.00	34.00	-28.00	-32.00	12.00	-69.00
	-8.00	27.00	29.00	-35.00	-19.00	5.00	-88.00
	19.00	13.00	171.00	-7.00	-14.00	1.00	-110.00
	20.00	79.00	362.00	67.00	-14.00	-1.00	-116.00
	-6.00	75.00	425.00	102.00	-13.00	-12.00	-119.00
	-17.00	78.00	339.00	108.00	-7.00	-29.00	-114.00
	-20.00	19.00	264.00	97.00	-2.00	-20.00	-124.00
	-17.00	-91.00	106.00	90.00	-1.00	-6.00	-133.00
	-5.00	-120.00	-104.00	48.00	7.00	-13.00	-142.00
	7.00	-63.00	-229.00	7.00	11.00	-2.00	-122.00
	37.00	-25.00	-478.00	-110.00	4.00	7.00	-154.00
	65.00	-21.00	-584.00	-203.00	-3.00	12.00	-192.00
	44.00	-21.00	-368.00	-150.00	-4.00	13.00	-180.00
	15.00	21.00	-108.00	-77.00	0.00	14.00	-158.00
	4.00	52.00	97.00	-23.00	2.00	17.00	-131.00
	-15.00	70.00	59.00	-45.00	6.00	9.00	-125.00
	-26.00	107.00	-126.00	-34.00	7.00	9.00	-130.00
	-11.00	166.00	-273.00	43.00	9.00	22.00	-157.00
	4.00	154.00	-239.00	86.00	0.00	27.00	-175.00
	8.00	94.00	-88.00	79.00	3.00	32.00	-175.00
	-5.00	5.00	24.00	119.00	-1.00	22.00	-182.00
	-26.00	-86.00	145.00	134.00	-3.00	20.00	-189.00
	-17.00	-94.00	142.00	58.00	-9.00	2.00	-180.00
	15.00	-35.00	68.00	-19.00	-26.00	-29.00	-149.00
	22.00	-7.00	53.00	-3.00	-36.00	-48.00	-111.00
	22.00	-54.00	48.00	5.00	-37.00	-46.00	-56.00
	8.00	-73.00	21.00	-42.00	-20.00	-6.00	-41.00
	-17.00	-54.00	111.00	-9.00	-10.00	11.00	-13.00
	-32.00	-59.00	240.00	25.00	-13.00	0.00	-2.00
	-34.00	-44.00	294.00	38.00	-4.00	5.00	-5.00
	-30.00	1.00	283.00	27.00	22.00	31.00	28.00
	-32.00	83.00	242.00	6.00	39.00	55.00	40.00
	-38.00	153.00	185.00	-44.00	73.00	71.00	40.00
	-29.00	166.00	-46.00	-93.00	76.00	43.00	51.00
	-4.00	115.00	-199.00	-83.00	64.00	31.00	50.00
	22.00	64.00	-120.00	-57.00	50.00	20.00	4.00
	20.00	43.00	-103.00	-33.00	41.00	12.00	-37.00
	13.00	-20.00	-178.00	-37.00	43.00	8.00	-41.00
	12.00	-16.00	-237.00	-48.00	42.00	-8.00	-11.00
	8.00	52.00	-166.00	-37.00	24.00	-23.00	-6.00
	4.00	56.00	-136.00	-23.00	33.00	-5.00	-10.00
	13.00	43.00	-45.00	19.00	42.00	20.00	2.00
	-1.00	17.00	77.00	91.00	40.00	20.00	5.00
	-10.00	-28.00	148.00	112.00	49.00	7.00	-10.00
	-22.00	-59.00	131.00	43.00	43.00	-3.00	11.00
	-30.00	-55.00	73.00	7.00	48.00	2.00	41.00
	-24.00	-94.00	6.00	-3.00	50.00	7.00	47.00
	-14.00	-83.00	28.00	5.00	45.00	11.00	42.00
	-14.00	-49.00	165.00	-12.00	48.00	8.00	35.00
	-13.00	-11.00	320.00	5.00	40.00	4.00	-4.00
	-10.00	17.00	310.00	55.00	22.00	14.00	6.00
	-16.00	20.00	187.00	58.00	14.00	19.00	6.00
	-6.00	27.00	-38.00	28.00	11.00	8.00	4.00
	5.00	44.00	-251.00	-7.00	6.00	-11.00	-25.00
	13.00	40.00	-250.00	-13.00	-2.00	-15.00	-32.00
	20.00	45.00	-240.00	-12.00	-18.00	-19.00	-96.00
	13.00	25.00	-211.00	1.00	6.00	41.00	-119.00
	15.00	2.00	-215.00	18.00	20.00	31.00	-100.00
	22.00	-5.00	-34.00	28.00	20.00	3.00	-48.00
	12.00	-37.00	227.00	25.00	22.00	0.00	-68.00
	4.00	-66.00	318.00	13.00	15.00	24.00	-95.00
	-13.00	-55.00	288.00	23.00	-5.00	25.00	-59.00
	-7.00	-35.00	108.00	-19.00	-11.00	40.00	-45.00
	-2.00	3.00	-117.00	-87.00	18.00	73.00	-42.00
	-1.00	38.00	-301.00	-114.00	15.00	52.00	-43.00
	4.00	71.00	-300.00	-16.00	9.00	35.00	-49.00
	8.00	92.00	-234.00	83.00	1.00	12.00	-16.00
	22.00	93.00	-110.00	98.00	8.00	-14.00	-33.00
	47.00	97.00	-13.00	96.00	12.00	-13.00	-44.00
	46.00	80.00	87.00	144.00	11.00	-25.00	-39.00
	31.00	31.00	159.00	118.00	2.00	-25.00	-24.00
	1.00	-25.00	79.00	-32.00	2.00	-35.00	-20.00
	-17.00	-22.00	157.00	-33.00	6.00	-45.00	-32.00
	-26.00	-66.00	189.00	-74.00	0.00	-44.00	-20.00
	-16.00	-62.00	195.00	-39.00	11.00	16.00	-19.00
	-10.00	-4.00	177.00	18.00	1.00	22.00	-13.00
	-22.00	45.00	-42.00	-3.00	-5.00	25.00	14.00
	-24.00	46.00	-234.00	-57.00	2.00	24.00	-30.00
	-4.00	33.00	-200.00	-9.00	15.00	19.00	-25.00
	14.00	46.00	-87.00	7.00	24.00	17.00	13.00
	23.00	57.00	-85.00	-60.00	31.00	11.00	12.00
	24.00	71.00	-55.00	-118.00	33.00	20.00	5.00
	8.00	79.00	-203.00	-88.00	20.00	15.00	16.00
	9.00	46.00	-185.00	-3.00	3.00	0.00	16.00
	20.00	27.00	-307.00	-41.00	6.00	-24.00	58.00
	58.00	-4.00	-201.00	22.00	19.00	-28.00	51.00
	64.00	29.00	-50.00	77.00	27.00	-41.00	31.00
	45.00	14.00	41.00	58.00	28.00	-58.00	33.00
	16.00	-15.00	9.00	-2.00	1.00	-86.00	31.00
	-7.00	-10.00	183.00	38.00	-45.00	-69.00	87.00
	-11.00	12.00	374.00	90.00	-25.00	49.00	57.00
	0.00	-9.00	464.00	70.00	-23.00	89.00	64.00
	-14.00	-10.00	418.00	89.00	-12.00	94.00	18.00
	-42.00	-23.00	263.00	84.00	-6.00	81.00	10.00
	-45.00	-72.00	-44.00	27.00	-19.00	36.00	58.00
	-39.00	-138.00	-115.00	56.00	-25.00	7.00	77.00
	-30.00	-130.00	10.00	96.00	-29.00	-17.00	103.00
	-22.00	-62.00	183.00	89.00	-16.00	47.00	99.00
	-9.00	-4.00	197.00	91.00	0.00	71.00	45.00
	-14.00	31.00	129.00	47.00	0.00	48.00	39.00
	-19.00	106.00	-135.00	-4.00	38.00	38.00	53.00
	10.00	101.00	-429.00	-71.00	94.00	33.00	-25.00
	42.00	23.00	-427.00	-46.00	134.00	30.00	2.00
	20.00	-3.00	-372.00	-61.00	125.00	9.00	54.00
	-5.00	-4.00	-208.00	-109.00	95.00	-24.00	67.00
	27.00	32.00	-95.00	-114.00	56.00	-21.00	92.00
	44.00	52.00	-87.00	-48.00	34.00	-10.00	86.00
	45.00	61.00	-24.00	-29.00	8.00	-2.00	51.00
	32.00	23.00	206.00	18.00	-27.00	-17.00	14.00
	0.00	39.00	287.00	12.00	-59.00	-29.00	-3.00
