
3.00	0.00	-59.00	-385.00	15.00	10.00	1.00
7.00	25.00	-32.00	-193.00	17.00	14.00	-2.00
8.00	31.00	-33.00	-43.00	14.00	2.00	-5.00
18.00	27.00	18.00	22.00	9.00	16.00	-4.00
24.00	20.00	6.00	17.00	4.00	38.00	-7.00
26.00	25.00	-13.00	49.00	6.00	27.00	-6.00
18.00	39.00	-57.00	67.00	13.00	25.00	-4.00
11.00	30.00	-77.00	45.00	17.00	21.00	-5.00
14.00	46.00	-73.00	-23.00	11.00	22.00	-1.00
18.00	42.00	-119.00	-98.00	11.00	22.00	4.00
18.00	0.00	-59.00	34.00	11.00	10.00	8.00
11.00	-42.00	-11.00	49.00	17.00	4.00	8.00
9.00	-43.00	45.00	129.00	12.00	3.00	8.00
5.00	-42.00	60.00	171.00	14.00	4.00	16.00
-1.00	-28.00	40.00	115.00	15.00	4.00	6.00
-2.00	4.00	34.00	83.00	17.00	8.00	1.00
-10.00	44.00	33.00	30.00	18.00	6.00	-3.00
-11.00	85.00	2.00	-114.00	23.00	13.00	-6.00
-12.00	81.00	9.00	-71.00	21.00	12.00	0.00
-13.00	58.00	65.00	69.00	11.00	-5.00	9.00
-15.00	43.00	102.00	134.00	10.00	-7.00	9.00
-9.00	30.00	86.00	103.00	8.00	-8.00	-1.00
-4.00	51.00	86.00	176.00	8.00	-4.00	-6.00
-5.00	58.00	69.00	274.00	5.00	2.00	-11.00
0.00	54.00	44.00	328.00	9.00	11.00	-7.00
3.00	64.00	22.00	246.00	13.00	17.00	-7.00
0.00	52.00	13.00	106.00	18.00	15.00	4.00
2.00	17.00	26.00	-50.00	19.00	3.00	9.00
6.00	-56.00	40.00	-168.00	21.00	15.00	12.00
7.00	-108.00	20.00	-193.00	9.00	8.00	4.00
5.00	-80.00	11.00	-147.00	2.00	-8.00	3.00
-2.00	-21.00	41.00	-42.00	6.00	1.00	2.00
-10.00	8.00	37.00	61.00	5.00	1.00	5.00
-22.00	61.00	40.00	53.00	3.00	-6.00	4.00
-15.00	118.00	49.00	-20.00	8.00	1.00	5.00
-15.00	132.00	51.00	-97.00	15.00	11.00	8.00
-14.00	102.00	39.00	-91.00	11.00	11.00	-6.00
-9.00	26.00	22.00	-58.00	8.00	7.00	0.00
-8.00	3.00	-29.00	-47.00	12.00	16.00	-2.00
-13.00	-7.00	-65.00	-15.00	17.00	20.00	-4.00
-16.00	-18.00	-82.00	10.00	19.00	16.00	-11.00
-12.00	-30.00	-66.00	75.00	18.00	15.00	-14.00
-2.00	-23.00	-63.00	150.00	11.00	16.00	-9.00
7.00	-25.00	-102.00	143.00	9.00	23.00	-5.00
15.00	-13.00	-44.00	181.00	5.00	18.00	-4.00
13.00	-25.00	5.00	219.00	-1.00	6.00	-1.00
8.00	-37.00	-20.00	150.00	-3.00	0.00	3.00
3.00	-7.00	-31.00	50.00	11.00	5.00	15.00
7.00	-1.00	-43.00	-67.00	28.00	27.00	4.00
2.00	15.00	-57.00	-90.00	18.00	23.00	-9.00
10.00	22.00	14.00	339.00	10.00	17.00	-6.00
5.00	45.00	84.00	616.00	1.00	2.00	-10.00
-11.00	64.00	112.00	557.00	10.00	0.00	-14.00
-10.00	54.00	105.00	328.00	22.00	3.00	-11.00
-10.00	18.00	66.00	-204.00	26.00	-6.00	0.00
-11.00	-21.00	8.00	-642.00	35.00	-3.00	7.00
-7.00	-25.00	-43.00	-854.00	34.00	4.00	-1.00
-2.00	-23.00	-97.00	-1041.00	33.00	27.00	2.00
-2.00	-12.00	-87.00	-809.00	31.00	32.00	-1.00
-1.00	-9.00	-11.00	-322.00	21.00	15.00	11.00
-6.00	-12.00	28.00	-45.00	19.00	10.00	22.00
-3.00	-9.00	22.00	41.00	16.00	6.00	27.00
1.00	2.00	39.00	168.00	11.00	4.00	23.00
8.00	8.00	42.00	282.00	8.00	9.00	12.00
13.00	-1.00	7.00	237.00	6.00	16.00	7.00
12.00	-34.00	-61.00	227.00	8.00	26.00	5.00
17.00	-46.00	-97.00	281.00	5.00	30.00	1.00
15.00	-39.00	-48.00	426.00	-1.00	12.00	-3.00
9.00	8.00	38.00	408.00	-9.00	-9.00	-9.00
11.00	42.00	51.00	311.00	-12.00	-22.00	-6.00
20.00	59.00	61.00	152.00	2.00	-21.00	-4.00
14.00	68.00	58.00	-164.00	11.00	-3.00	-5.00
19.00	35.00	94.00	-238.00	20.00	20.00	-7.00
27.00	-14.00	63.00	-207.00	18.00	20.00	-8.00
22.00	-46.00	-15.00	-214.00	11.00	21.00	-11.00
24.00	-16.00	-49.00	-201.00	17.00	39.00	-14.00
24.00	27.00	-60.00	-130.00	17.00	49.00	-14.00
21.00	53.00	-74.00	-184.00	25.00	44.00	1.00
18.00	57.00	-115.00	-277.00	26.00	28.00	-5.00
18.00	49.00	-135.00	-306.00	19.00	11.00	-15.00
9.00	36.00	-119.00	-265.00	23.00	11.00	-16.00
12.00	-1.00	-147.00	-298.00	18.00	14.00	11.00
17.00	-6.00	-116.00	-210.00	18.00	18.00	21.00
21.00	18.00	-77.00	-133.00	16.00	7.00	11.00
15.00	43.00	-33.00	-50.00	14.00	7.00	7.00
15.00	51.00	8.00	34.00	13.00	8.00	5.00
13.00	64.00	75.00	159.00	9.00	4.00	4.00
9.00	69.00	108.00	231.00	8.00	-3.00	1.00
17.00	69.00	144.00	270.00	8.00	0.00	17.00
18.00	18.00	129.00	279.00	8.00	1.00	-7.00
23.00	-16.00	110.00	271.00	8.00	0.00	-3.00
22.00	-4.00	77.00	261.00	11.00	3.00	0.00
22.00	13.00	108.00	257.00	9.00	0.00	0.00
21.00	24.00	125.00	252.00	8.00	0.00	-4.00
13.00	5.00	88.00	192.00	9.00	1.00	-9.00
6.00	-3.00	75.00	159.00	12.00	6.00	-6.00
-3.00	-5.00	38.00	171.00	9.00	5.00	-5.00
-13.00	10.00	-17.00	157.00	7.00	6.00	-3.00
-14.00	25.00	-49.00	120.00	11.00	13.00	-2.00
-21.00	5.00	-57.00	83.00	12.00	9.00	-2.00
-29.00	-25.00	-61.00	49.00	9.00	-3.00	0.00
-35.00	-21.00	-38.00	42.00	4.00	-10.00	0.00
-26.00	3.00	35.00	45.00	12.00	-3.00	-1.00
-17.00	-8.00	63.00	118.00	9.00	-5.00	-4.00
-20.00	-46.00	76.00	145.00	4.00	1.00	-5.00
-21.00	-26.00	75.00	118.00	3.00	20.00	-4.00
-22.00	19.00	56.00	91.00	2.00	14.00	-5.00
-19.00	76.00	33.00	60.00	3.00	12.00	-1.00
-14.00	86.00	37.00	8.00	7.00	19.00	-3.00
-5.00	56.00	49.00	-36.00	15.00	26.00	-3.00
-3.00	74.00	43.00	-98.00	20.00	26.00	-4.00
-6.00	75.00	15.00	-120.00	15.00	17.00	-3.00
-5.00	67.00	-10.00	-39.00	10.00	13.00	-3.00
-7.00	48.00	-59.00	29.00	11.00	16.00	-5.00
-6.00	51.00	-39.00	156.00	8.00	13.00	3.00
-6.00	62.00	-22.00	226.00	11.00	11.00	8.00
-2.00	57.00	-14.00	207.00	11.00	11.00	1.00
1.00	60.00	-32.00	127.00	5.00	4.00	2.00
2.00	46.00	19.00	113.00	0.00	1.00	8.00
1.00	30.00	22.00	-2.00	10.00	4.00	7.00
-3.00	20.00	-19.00	-269.00	23.00	21.00	2.00
-15.00	13.00	2.00	-179.00	29.00	35.00	7.00
-12.00	8.00	51.00	88.00	15.00	25.00	5.00
-14.00	-13.00	32.00	45.00	12.00	14.00	1.00
-17.00	-27.00	6.00	-18.00	11.00	8.00	5.00
-22.00	-51.00	-46.00	-257.00	9.00	10.00	5.00
-15.00	-39.00	-1.00	-281.00	22.00	14.00	7.00
-10.00	-36.00	-27.00	-445.00	33.00	22.00	13.00
-6.00	-35.00	-121.00	-716.00	25.00	12.00	10.00
-4.00	-8.00	-164.00	-718.00	13.00	6.00	-2.00
-2.00	-12.00	-144.00	-461.00	13.00	3.00	-6.00
-4.00	-35.00	-79.00	-189.00	19.00	3.00	-3.00
0.00	-47.00	-42.00	-77.00	21.00	1.00	2.00
5.00	-30.00	-64.00	7.00	16.00	-2.00	7.00
0.00	-8.00	-79.00	41.00	6.00	-4.00	12.00
-3.00	3.00	-42.00	-10.00	13.00	10.00	18.00
-2.00	-20.00	-16.00	-40.00	14.00	13.00	1.00
-3.00	-8.00	-16.00	-44.00	12.00	5.00	-7.00
6.00	11.00	-10.00	17.00	10.00	5.00	-6.00
17.00	30.00	-11.00	35.00	14.00	21.00	6.00
23.00	37.00	-3.00	117.00	19.00	31.00	18.00
27.00	32.00	11.00	225.00	15.00	19.00	16.00
21.00	24.00	31.00	284.00	6.00	2.00	1.00
18.00	21.00	114.00	414.00	2.00	-5.00	-8.00
12.00	5.00	205.00	471.00	0.00	-7.00	-7.00
10.00	-4.00	226.00	450.00	0.00	-9.00	-18.00
9.00	-20.00	198.00	409.00	0.00	-4.00	-8.00
-3.00	-35.00	151.00	338.00	-3.00	1.00	-8.00
-5.00	-6.00	83.00	256.00	-3.00	-1.00	-20.00
-8.00	37.00	-1.00	53.00	5.00	8.00	-10.00
-7.00	68.00	-130.00	-226.00	18.00	30.00	-10.00
-2.00	79.00	-193.00	-280.00	24.00	40.00	-4.00
-2.00	88.00	-185.00	-158.00	21.00	36.00	-4.00
-3.00	78.00	-115.00	-85.00	6.00	18.00	8.00
-4.00	75.00	12.00	18.00	0.00	6.00	15.00
-8.00	71.00	85.00	14.00	4.00	6.00	17.00
-7.00	44.00	95.00	-67.00	11.00	8.00	11.00
-5.00	22.00	41.00	-123.00	14.00	5.00	5.00
-4.00	18.00	19.00	-112.00	14.00	6.00	-1.00
-2.00	12.00	19.00	-53.00	10.00	8.00	-2.00
0.00	5.00	-32.00	-139.00	19.00	18.00	-5.00
7.00	-16.00	-54.00	-133.00	24.00	25.00	-8.00
4.00	-28.00	-56.00	-59.00	19.00	20.00	-4.00
-2.00	-37.00	-33.00	67.00	11.00	14.00	2.00
-5.00	-36.00	2.00	221.00	7.00	10.00	-8.00
-3.00	-12.00	45.00	278.00	9.00	13.00	-12.00
-3.00	-2.00	61.00	286.00	8.00	7.00	-1.00
2.00	7.00	44.00	185.00	10.00	2.00	0.00
3.00	8.00	16.00	1.00	9.00	1.00	6.00
15.00	24.00	-2.00	-83.00	13.00	10.00	18.00
13.00	30.00	-30.00	-207.00	19.00	15.00	8.00
10.00	2.00	-56.00	-216.00	15.00	12.00	11.00
7.00	-23.00	-62.00	-161.00	24.00	17.00	11.00
3.00	18.00	-48.00	-112.00	25.00	22.00	-7.00
3.00	40.00	1.00	-40.00	22.00	18.00	-8.00
5.00	33.00	23.00	29.00	20.00	13.00	5.00
5.00	66.00	23.00	72.00	13.00	2.00	-4.00
5.00	50.00	32.00	74.00	8.00	-3.00	-3.00
7.00	23.00	95.00	176.00	8.00	0.00	1.00
6.00	13.00	106.00	223.00	13.00	4.00	11.00
5.00	11.00	119.00	262.00	5.00	-6.00	10.00
12.00	7.00	106.00	251.00	2.00	0.00	3.00
11.00	24.00	64.00	293.00	-1.00	2.00	-5.00
8.00	46.00	97.00	362.00	7.00	2.00	-10.00
11.00	73.00	101.00	272.00	9.00	3.00	-11.00
9.00	44.00	26.00	75.00	11.00	-3.00	-12.00
4.00	37.00	-8.00	-11.00	23.00	9.00	-9.00
1.00	7.00	5.00	-45.00	28.00	28.00	5.00
3.00	-28.00	-37.00	-98.00	11.00	26.00	-1.00
1.00	-29.00	-129.00	-257.00	0.00	29.00	4.00
-3.00	-12.00	-180.00	-332.00	3.00	22.00	15.00
-2.00	-18.00	-186.00	-430.00	3.00	4.00	17.00
-2.00	-7.00	-178.00	-586.00	20.00	4.00	5.00
-1.00	-12.00	-200.00	-680.00	30.00	13.00	-4.00
2.00	-36.00	-128.00	-617.00	28.00	17.00	-6.00
8.00	-38.00	-3.00	-362.00	25.00	20.00	3.00
17.00	-16.00	39.00	-112.00	21.00	16.00	-8.00
20.00	16.00	21.00	-42.00	20.00	19.00	-3.00
11.00	15.00	36.00	8.00	11.00	17.00	-4.00
4.00	-5.00	70.00	60.00	3.00	3.00	-8.00
6.00	16.00	113.00	154.00	2.00	-4.00	-11.00
2.00	35.00	137.00	240.00	7.00	2.00	-8.00
-4.00	78.00	126.00	269.00	11.00	9.00	0.00
-9.00	70.00	126.00	273.00	7.00	2.00	7.00
-15.00	48.00	101.00	296.00	-1.00	0.00	22.00
-11.00	62.00	59.00	338.00	0.00	-1.00	18.00
-5.00	57.00	34.00	417.00	5.00	4.00	22.00
-3.00	35.00	28.00	459.00	0.00	0.00	17.00
-7.00	18.00	-5.00	443.00	-7.00	2.00	10.00
1.00	26.00	-44.00	382.00	-2.00	4.00	12.00
0.00	45.00	-53.00	270.00	10.00	14.00	4.00
-8.00	38.00	-79.00	50.00	21.00	11.00	-2.00
-3.00	24.00	-127.00	-242.00	19.00	-6.00	-4.00
-1.00	9.00	-114.00	-246.00	24.00	2.00	-5.00
-4.00	-27.00	-58.00	-107.00	26.00	13.00	-2.00
4.00	-39.00	9.00	-27.00	31.00	31.00	-1.00
2.00	-22.00	74.00	-49.00	17.00	11.00	-2.00
-1.00	-5.00	87.00	-131.00	12.00	6.00	3.00
0.00	-9.00	83.00	-165.00	20.00	23.00	-2.00
-3.00	-8.00	46.00	-207.00	25.00	30.00	-8.00
0.00	-9.00	12.00	-147.00	16.00	14.00	-1.00
7.00	-25.00	-3.00	-86.00	5.00	-4.00	5.00
16.00	-20.00	-6.00	-113.00	0.00	-12.00	7.00
16.00	4.00	-39.00	-179.00	9.00	0.00	-4.00
9.00	8.00	-73.00	-310.00	21.00	16.00	-5.00
5.00	-7.00	-81.00	-322.00	24.00	23.00	-3.00
-4.00	-30.00	-62.00	-154.00	17.00	19.00	1.00
-10.00	-40.00	-51.00	19.00	7.00	1.00	-1.00
-10.00	-18.00	3.00	182.00	2.00	-4.00	-1.00
-11.00	29.00	65.00	243.00	-1.00	-10.00	-5.00
-4.00	65.00	104.00	225.00	5.00	3.00	-5.00
-3.00	42.00	148.00	181.00	14.00	10.00	-1.00
-4.00	29.00	136.00	106.00	11.00	26.00	-2.00
-2.00	29.00	111.00	104.00	6.00	27.00	-3.00
0.00	30.00	81.00	153.00	0.00	11.00	-5.00
2.00	18.00	35.00	133.00	0.00	11.00	-4.00
4.00	23.00	-45.00	136.00	7.00	28.00	4.00
9.00	47.00	-119.00	77.00	19.00	33.00	11.00
4.00	57.00	-128.00	15.00	15.00	17.00	1.00
0.00	71.00	-101.00	-6.00	22.00	19.00	10.00
-2.00	74.00	-24.00	-126.00	40.00	44.00	9.00
-7.00	47.00	-19.00	-244.00	33.00	39.00	-6.00
-5.00	11.00	-33.00	-285.00	27.00	26.00	-6.00
-6.00	-28.00	-37.00	-265.00	21.00	22.00	-7.00
-4.00	-28.00	-21.00	-135.00	22.00	10.00	-12.00
-5.00	-24.00	5.00	7.00	13.00	-2.00	-1.00
-11.00	-32.00	6.00	111.00	4.00	-1.00	10.00
-12.00	-18.00	-11.00	156.00	6.00	0.00	21.00
-3.00	15.00	-19.00	164.00	13.00	-2.00	19.00
5.00	53.00	-3.00	183.00	13.00	-7.00	13.00
14.00	65.00	23.00	209.00	10.00	-6.00	2.00
20.00	83.00	44.00	169.00	6.00	-6.00	5.00
21.00	91.00	58.00	142.00	5.00	-5.00	0.00
15.00	57.00	73.00	169.00	3.00	-6.00	-1.00
10.00	39.00	112.00	260.00	4.00	-2.00	-5.00
-2.00	23.00	76.00	179.00	6.00	6.00	-10.00
-5.00	24.00	31.00	52.00	16.00	10.00	-20.00
-3.00	36.00	54.00	60.00	23.00	8.00	3.00
1.00	44.00	25.00	-72.00	23.00	3.00	17.00
6.00	21.00	13.00	-133.00	17.00	3.00	17.00
-2.00	-6.00	-14.00	-229.00	13.00	7.00	5.00
-4.00	-14.00	-9.00	-145.00	12.00	6.00	1.00
-2.00	-20.00	-18.00	-103.00	14.00	14.00	8.00
-1.00	-8.00	-11.00	51.00	9.00	13.00	15.00
6.00	-10.00	36.00	218.00	6.00	24.00	10.00
12.00	-25.00	50.00	274.00	10.00	17.00	3.00
7.00	-48.00	85.00	220.00	8.00	4.00	-2.00
3.00	-46.00	105.00	160.00	4.00	-3.00	-3.00
7.00	-42.00	66.00	-75.00	8.00	-2.00	-2.00
15.00	-28.00	32.00	-236.00	14.00	5.00	-1.00
13.00	-17.00	-23.00	-95.00	23.00	19.00	3.00
9.00	-5.00	-66.00	10.00	17.00	24.00	-1.00
6.00	33.00	-98.00	12.00	10.00	17.00	-6.00
3.00	61.00	-95.00	1.00	4.00	11.00	-8.00
-1.00	77.00	-137.00	-96.00	1.00	7.00	-10.00
-1.00	70.00	-152.00	-218.00	7.00	7.00	-3.00
0.00	47.00	-140.00	-344.00	19.00	19.00	-7.00
-4.00	16.00	-114.00	-435.00	15.00	15.00	-7.00
1.00	-48.00	-80.00	-315.00	14.00	0.00	-2.00
4.00	-43.00	-39.00	-134.00	19.00	3.00	6.00
3.00	-39.00	-6.00	5.00	17.00	1.00	14.00
2.00	-39.00	-17.00	-22.00	15.00	8.00	22.00
-1.00	-23.00	-67.00	-127.00	18.00	19.00	13.00
-6.00	-10.00	-97.00	-187.00	19.00	21.00	1.00
-3.00	-15.00	-98.00	-186.00	21.00	13.00	-1.00
4.00	-10.00	-36.00	-179.00	20.00	7.00	-7.00
4.00	25.00	-4.00	-256.00	24.00	10.00	-10.00
0.00	60.00	23.00	-194.00	24.00	28.00	-18.00
7.00	77.00	60.00	25.00	22.00	40.00	-13.00
3.00	86.00	76.00	157.00	16.00	27.00	-8.00
-1.00	65.00	80.00	228.00	18.00	30.00	-6.00
-8.00	22.00	96.00	305.00	17.00	23.00	-7.00
-13.00	8.00	92.00	350.00	9.00	5.00	7.00
-14.00	-3.00	82.00	399.00	1.00	-11.00	33.00
-4.00	4.00	84.00	477.00	-4.00	-17.00	45.00
-2.00	6.00	76.00	421.00	-3.00	-9.00	22.00
-1.00	26.00	84.00	295.00	-1.00	-8.00	8.00
14.00	47.00	76.00	180.00	1.00	-13.00	-2.00
21.00	44.00	61.00	3.00	10.00	-11.00	-6.00
13.00	58.00	59.00	-127.00	27.00	2.00	-3.00
18.00	92.00	70.00	-142.00	20.00	6.00	0.00
18.00	73.00	95.00	-8.00	3.00	6.00	-2.00
12.00	54.00	121.00	106.00	2.00	15.00	-6.00
16.00	8.00	118.00	231.00	14.00	19.00	-6.00
7.00	-22.00	56.00	191.00	16.00	10.00	-4.00
0.00	-31.00	-15.00	46.00	11.00	9.00	-1.00
-8.00	-34.00	-38.00	-97.00	6.00	12.00	-2.00
-3.00	-38.00	-58.00	-151.00	12.00	16.00	-2.00
-6.00	-46.00	-100.00	-284.00	26.00	29.00	-1.00
-4.00	-21.00	-101.00	-276.00	35.00	34.00	1.00
-8.00	-12.00	-114.00	-235.00	24.00	23.00	-6.00
-9.00	-27.00	-83.00	-135.00	18.00	17.00	-11.00
-8.00	-37.00	-60.00	-88.00	16.00	14.00	-9.00
-9.00	-4.00	-57.00	-105.00	12.00	11.00	-6.00
-8.00	20.00	-44.00	-68.00	11.00	11.00	4.00
-2.00	9.00	31.00	115.00	10.00	9.00	28.00
-1.00	11.00	127.00	284.00	3.00	1.00	14.00
-6.00	13.00	193.00	407.00	4.00	-4.00	-1.00
-8.00	45.00	205.00	484.00	2.00	-4.00	-7.00
-1.00	53.00	182.00	413.00	5.00	-3.00	-4.00
-1.00	53.00	118.00	235.00	5.00	1.00	4.00
-1.00	59.00	-11.00	9.00	10.00	10.00	2.00
2.00	35.00	-188.00	-191.00	19.00	21.00	14.00
6.00	23.00	-250.00	-329.00	20.00	18.00	6.00
8.00	42.00	-219.00	-323.00	20.00	17.00	5.00
2.00	24.00	-175.00	-250.00	22.00	17.00	7.00
-4.00	19.00	-145.00	-227.00	23.00	14.00	4.00
-7.00	25.00	-95.00	-175.00	22.00	10.00	-2.00
-8.00	11.00	-85.00	-129.00	14.00	6.00	2.00
-8.00	13.00	-34.00	62.00	11.00	4.00	3.00
2.00	14.00	54.00	292.00	9.00	6.00	2.00
-2.00	21.00	115.00	435.00	6.00	1.00	3.00
2.00	38.00	132.00	412.00	6.00	0.00	1.00
3.00	58.00	129.00	234.00	6.00	4.00	-4.00
3.00	80.00	99.00	-76.00	13.00	3.00	4.00
1.00	79.00	38.00	-367.00	20.00	3.00	4.00
1.00	37.00	-6.00	-471.00	23.00	6.00	-9.00
-1.00	16.00	-17.00	-439.00	24.00	10.00	-8.00
11.00	17.00	13.00	-297.00	23.00	15.00	2.00
12.00	6.00	76.00	-75.00	25.00	18.00	4.00
5.00	-26.00	92.00	59.00	17.00	13.00	6.00
0.00	-55.00	65.00	145.00	14.00	13.00	12.00
3.00	-63.00	9.00	138.00	12.00	17.00	8.00
7.00	-72.00	-60.00	38.00	9.00	13.00	3.00
4.00	-61.00	-100.00	-71.00	11.00	12.00	6.00
4.00	-60.00	-102.00	-21.00	11.00	17.00	3.00
3.00	-24.00	-98.00	17.00	10.00	16.00	-6.00
1.00	28.00	-63.00	45.00	8.00	11.00	-18.00
-1.00	72.00	23.00	119.00	2.00	9.00	-12.00
-2.00	87.00	109.00	225.00	-5.00	9.00	5.00
-6.00	51.00	115.00	198.00	-8.00	5.00	10.00
-7.00	30.00	105.00	124.00	-8.00	6.00	6.00
-5.00	14.00	139.00	242.00	-8.00	-2.00	12.00
5.00	-7.00	100.00	188.00	1.00	0.00	25.00
7.00	1.00	53.00	13.00	9.00	8.00	12.00
10.00	29.00	27.00	-118.00	25.00	17.00	1.00
17.00	65.00	-5.00	-229.00	30.00	21.00	-10.00
17.00	64.00	1.00	-275.00	23.00	11.00	-8.00
24.00	50.00	-2.00	-260.00	18.00	7.00	-4.00
20.00	43.00	-17.00	-189.00	9.00	7.00	-3.00
15.00	51.00	-45.00	-76.00	9.00	13.00	-3.00
4.00	39.00	-74.00	49.00	15.00	19.00	-2.00
-3.00	26.00	-141.00	69.00	20.00	18.00	19.00
-2.00	29.00	-181.00	27.00	21.00	14.00	27.00
-12.00	28.00	-184.00	-53.00	26.00	19.00	7.00
-5.00	20.00	-131.00	-49.00	25.00	20.00	-3.00
-7.00	-7.00	-57.00	-17.00	19.00	18.00	-1.00
-5.00	-22.00	-46.00	-14.00	24.00	21.00	-8.00
-5.00	-27.00	-5.00	45.00	29.00	20.00	7.00
1.00	-27.00	41.00	148.00	16.00	11.00	7.00
2.00	-32.00	65.00	189.00	11.00	8.00	4.00
0.00	-20.00	86.00	225.00	9.00	4.00	-3.00
1.00	0.00	104.00	278.00	5.00	-3.00	-2.00
1.00	6.00	88.00	295.00	3.00	-5.00	5.00
4.00	1.00	53.00	276.00	0.00	-7.00	6.00
2.00	-10.00	39.00	325.00	-1.00	1.00	1.00
4.00	-14.00	46.00	264.00	1.00	-1.00	-5.00
1.00	1.00	62.00	133.00	6.00	6.00	-4.00
2.00	29.00	40.00	-24.00	11.00	13.00	-6.00
-1.00	6.00	9.00	-214.00	17.00	19.00	-7.00
6.00	-2.00	4.00	-286.00	19.00	14.00	-10.00
11.00	-15.00	-9.00	-285.00	13.00	8.00	-10.00
2.00	-26.00	19.00	-224.00	15.00	17.00	-13.00
-3.00	-63.00	38.00	-104.00	12.00	19.00	2.00
-2.00	-87.00	75.00	3.00	14.00	21.00	14.00
9.00	-44.00	131.00	182.00	15.00	15.00	9.00
14.00	38.00	122.00	193.00	10.00	3.00	11.00
12.00	93.00	61.00	101.00	10.00	5.00	11.00
7.00	132.00	-27.00	16.00	6.00	10.00	-7.00
-9.00	146.00	-77.00	9.00	5.00	9.00	0.00
-13.00	118.00	-153.00	-176.00	0.00	10.00	1.00
-12.00	74.00	-176.00	-351.00	3.00	10.00	0.00
-4.00	44.00	-113.00	-103.00	13.00	17.00	-1.00
1.00	21.00	-61.00	-128.00	26.00	33.00	10.00
-5.00	22.00	-76.00	-336.00	21.00	28.00	2.00
-5.00	36.00	-84.00	-356.00	19.00	13.00	2.00
2.00	49.00	-51.00	-233.00	16.00	4.00	-1.00
-1.00	26.00	-47.00	-141.00	8.00	-1.00	-9.00
-7.00	2.00	-19.00	-92.00	21.00	10.00	-3.00
-9.00	5.00	-11.00	-16.00	19.00	6.00	-2.00
0.00	-1.00	-9.00	-65.00	13.00	-4.00	-1.00
3.00	-33.00	27.00	-37.00	5.00	-5.00	2.00
3.00	-62.00	54.00	-3.00	3.00	-1.00	8.00
1.00	-71.00	55.00	23.00	2.00	2.00	7.00
5.00	-69.00	109.00	163.00	4.00	-1.00	2.00
7.00	-47.00	195.00	357.00	9.00	0.00	1.00
13.00	22.00	200.00	440.00	17.00	9.00	8.00
15.00	52.00	168.00	381.00	14.00	6.00	3.00
-2.00	75.00	161.00	268.00	11.00	8.00	1.00
-2.00	61.00	150.00	188.00	10.00	13.00	1.00
-1.00	25.00	86.00	52.00	4.00	8.00	-2.00
-3.00	13.00	-23.00	-61.00	8.00	10.00	1.00
-6.00	31.00	-149.00	-155.00	18.00	20.00	6.00
-4.00	27.00	-215.00	-143.00	22.00	14.00	1.00
-2.00	38.00	-198.00	48.00	15.00	8.00	-1.00
-1.00	40.00	-68.00	199.00	7.00	4.00	1.00
-2.00	37.00	65.00	294.00	1.00	1.00	-2.00
-3.00	35.00	138.00	278.00	1.00	-1.00	-8.00
8.00	29.00	124.00	164.00	7.00	0.00	0.00
12.00	12.00	84.00	-17.00	10.00	9.00	-4.00
10.00	3.00	31.00	-144.00	11.00	14.00	1.00
9.00	-12.00	16.00	-112.00	20.00	26.00	16.00
12.00	-26.00	-2.00	52.00	14.00	18.00	17.00
12.00	-47.00	-58.00	131.00	5.00	13.00	9.00
6.00	-55.00	-84.00	205.00	4.00	16.00	7.00
2.00	-36.00	-81.00	119.00	4.00	19.00	9.00
-4.00	-1.00	-83.00	-50.00	11.00	26.00	6.00
-7.00	33.00	-73.00	-81.00	14.00	26.00	2.00
-7.00	73.00	-68.00	-172.00	19.00	27.00	-6.00
0.00	88.00	-108.00	-243.00	28.00	22.00	-11.00
2.00	75.00	-141.00	-283.00	21.00	15.00	-13.00
-1.00	19.00	-120.00	-126.00	22.00	21.00	-10.00
-1.00	-14.00	-24.00	16.00	20.00	18.00	-10.00
-3.00	-9.00	44.00	42.00	14.00	12.00	-18.00
4.00	9.00	36.00	-39.00	22.00	18.00	-8.00
-2.00	-4.00	15.00	-141.00	19.00	11.00	8.00
-6.00	-30.00	25.00	-158.00	10.00	3.00	14.00
-3.00	-94.00	19.00	-227.00	10.00	0.00	-5.00
-8.00	-86.00	-9.00	-242.00	19.00	13.00	3.00
-4.00	-39.00	-43.00	-345.00	28.00	22.00	21.00
-3.00	15.00	-31.00	-354.00	19.00	13.00	15.00
-2.00	43.00	-17.00	-183.00	15.00	10.00	7.00
5.00	56.00	-14.00	-62.00	14.00	5.00	-1.00
2.00	45.00	15.00	48.00	10.00	-2.00	-3.00
-2.00	53.00	42.00	177.00	5.00	-5.00	-4.00
-2.00	27.00	65.00	272.00	2.00	-2.00	-6.00
-1.00	0.00	59.00	330.00	1.00	-1.00	1.00
8.00	-11.00	29.00	330.00	3.00	-2.00	7.00
7.00	0.00	76.00	415.00	3.00	-4.00	5.00
-2.00	2.00	126.00	501.00	3.00	-4.00	11.00
1.00	77.00	135.00	414.00	13.00	1.00	15.00
2.00	139.00	132.00	336.00	15.00	7.00	5.00
-2.00	125.00	129.00	309.00	9.00	8.00	0.00
-3.00	98.00	129.00	280.00	10.00	7.00	-1.00
4.00	64.00	66.00	42.00	8.00	6.00	1.00
4.00	21.00	-4.00	-187.00	12.00	15.00	2.00
8.00	25.00	-54.00	-298.00	14.00	15.00	-7.00
5.00	30.00	-127.00	-430.00	17.00	24.00	-9.00
3.00	17.00	-187.00	-583.00	18.00	19.00	-12.00
3.00	33.00	-171.00	-451.00	17.00	14.00	-11.00
-6.00	48.00	-128.00	-357.00	13.00	13.00	-6.00
-5.00	43.00	-62.00	-208.00	11.00	11.00	3.00
-1.00	-5.00	-38.00	-91.00	8.00	13.00	2.00
-1.00	-21.00	-40.00	-38.00	10.00	13.00	2.00
4.00	-13.00	-22.00	34.00	11.00	11.00	9.00
10.00	-17.00	17.00	99.00	6.00	8.00	17.00
16.00	-53.00	44.00	149.00	2.00	3.00	9.00
16.00	-55.00	80.00	255.00	-1.00	5.00	4.00
12.00	-55.00	101.00	356.00	-3.00	5.00	-1.00
5.00	-41.00	104.00	381.00	-4.00	3.00	-2.00
3.00	-6.00	98.00	407.00	0.00	7.00	-6.00
4.00	21.00	127.00	455.00	-1.00	5.00	6.00
9.00	19.00	176.00	382.00	-2.00	-4.00	-4.00
12.00	-2.00	158.00	267.00	0.00	-4.00	-4.00
13.00	-3.00	103.00	57.00	4.00	-6.00	-3.00
10.00	42.00	106.00	-183.00	17.00	9.00	-2.00
4.00	58.00	78.00	-188.00	23.00	18.00	-2.00
2.00	32.00	8.00	-275.00	16.00	25.00	6.00
-5.00	22.00	-39.00	-354.00	28.00	31.00	7.00
-13.00	7.00	-89.00	-479.00	36.00	33.00	6.00
-16.00	3.00	-84.00	-388.00	24.00	17.00	7.00
-23.00	7.00	-94.00	-274.00	30.00	16.00	3.00
-13.00	23.00	-140.00	-217.00	30.00	12.00	2.00
-2.00	33.00	-191.00	-203.00	21.00	8.00	-5.00
7.00	25.00	-177.00	-165.00	18.00	11.00	-12.00
3.00	9.00	-165.00	-149.00	20.00	13.00	-14.00
4.00	8.00	-193.00	-212.00	21.00	17.00	-10.00
4.00	8.00	-183.00	-165.00	24.00	22.00	2.00
3.00	2.00	-124.00	-23.00	28.00	25.00	1.00
7.00	-4.00	-56.00	63.00	21.00	15.00	0.00
5.00	-5.00	-4.00	125.00	12.00	7.00	-8.00
4.00	1.00	33.00	179.00	7.00	2.00	-13.00
1.00	1.00	58.00	207.00	6.00	1.00	0.00
7.00	-2.00	76.00	219.00	4.00	1.00	13.00
9.00	-2.00	87.00	218.00	4.00	-1.00	7.00
10.00	-7.00	96.00	191.00	10.00	6.00	10.00
9.00	8.00	92.00	162.00	10.00	15.00	6.00
4.00	4.00	91.00	151.00	9.00	14.00	0.00
-3.00	-8.00	136.00	188.00	6.00	4.00	-9.00
-2.00	26.00	176.00	227.00	6.00	-1.00	-7.00
-1.00	34.00	186.00	246.00	5.00	2.00	3.00
-10.00	27.00	187.00	269.00	4.00	3.00	11.00
-11.00	46.00	174.00	286.00	4.00	6.00	4.00
-11.00	58.00	188.00	325.00	5.00	10.00	18.00
-9.00	45.00	156.00	265.00	0.00	9.00	17.00
-11.00	12.00	63.00	98.00	2.00	9.00	3.00
-6.00	-8.00	-32.00	48.00	4.00	10.00	-6.00
-7.00	10.00	-122.00	-46.00	7.00	11.00	5.00
-5.00	29.00	-190.00	-155.00	16.00	14.00	5.00
3.00	18.00	-235.00	-232.00	16.00	12.00	2.00
7.00	5.00	-210.00	-236.00	14.00	10.00	4.00
9.00	52.00	-202.00	-183.00	15.00	19.00	13.00
7.00	92.00	-131.00	-26.00	21.00	16.00	-9.00
4.00	72.00	-83.00	43.00	15.00	10.00	-15.00
0.00	57.00	-41.00	71.00	13.00	0.00	-12.00
-3.00	33.00	1.00	10.00	9.00	-7.00	-7.00
-7.00	1.00	-7.00	-60.00	1.00	9.00	-8.00
-8.00	-10.00	-13.00	-228.00	10.00	26.00	-7.00
0.00	-40.00	-35.00	-366.00	22.00	20.00	-9.00
2.00	-58.00	-32.00	-349.00	26.00	19.00	-7.00
14.00	-37.00	-9.00	-252.00	26.00	17.00	14.00
15.00	-30.00	5.00	-203.00	23.00	13.00	24.00
15.00	-49.00	6.00	-198.00	21.00	10.00	11.00
11.00	-44.00	21.00	-89.00	21.00	12.00	2.00
6.00	-22.00	67.00	62.00	21.00	18.00	-1.00
-3.00	10.00	137.00	166.00	23.00	23.00	1.00
-5.00	43.00	231.00	254.00	18.00	6.00	1.00
-5.00	81.00	259.00	270.00	9.00	-12.00	8.00
-7.00	86.00	231.00	230.00	4.00	-6.00	13.00
-7.00	51.00	172.00	107.00	3.00	-6.00	3.00
-7.00	39.00	99.00	53.00	3.00	-8.00	-2.00
-5.00	43.00	15.00	53.00	2.00	-11.00	2.00
6.00	53.00	-96.00	104.00	1.00	0.00	4.00
7.00	57.00	-253.00	-16.00	12.00	10.00	-6.00
6.00	26.00	-288.00	-195.00	18.00	16.00	-3.00
12.00	1.00	-199.00	-96.00	18.00	20.00	-4.00
21.00	-5.00	-80.00	12.00	16.00	20.00	-8.00
21.00	-22.00	-37.00	75.00	10.00	17.00	-1.00
13.00	-25.00	-3.00	198.00	0.00	11.00	1.00
6.00	-4.00	57.00	339.00	0.00	10.00	2.00
3.00	49.00	70.00	317.00	2.00	11.00	-4.00
1.00	112.00	55.00	137.00	9.00	5.00	-7.00
-10.00	64.00	21.00	-118.00	20.00	8.00	-11.00
-13.00	31.00	-49.00	-385.00	22.00	20.00	-6.00
-14.00	22.00	-83.00	-490.00	26.00	24.00	0.00
-9.00	15.00	-59.00	-399.00	28.00	23.00	-2.00
-9.00	13.00	-14.00	-187.00	22.00	17.00	-3.00
-6.00	10.00	4.00	-78.00	17.00	14.00	1.00
1.00	13.00	27.00	-5.00	11.00	7.00	-1.00
5.00	-6.00	62.00	133.00	9.00	6.00	-3.00
2.00	-7.00	82.00	287.00	3.00	2.00	1.00
2.00	8.00	96.00	498.00	-1.00	-3.00	4.00
4.00	33.00	112.00	589.00	-6.00	-6.00	1.00
-1.00	37.00	95.00	473.00	-1.00	-6.00	1.00
9.00	18.00	68.00	299.00	9.00	5.00	0.00
10.00	-9.00	17.00	127.00	16.00	5.00	-4.00
5.00	-2.00	-19.00	-108.00	23.00	6.00	-9.00
0.00	3.00	-97.00	-459.00	36.00	32.00	-7.00
1.00	-4.00	-149.00	-690.00	38.00	34.00	-6.00
6.00	0.00	-149.00	-609.00	35.00	31.00	-3.00
6.00	2.00	-122.00	-413.00	30.00	21.00	7.00
6.00	2.00	-68.00	-262.00	24.00	9.00	-1.00
9.00	1.00	-16.00	-130.00	17.00	3.00	-20.00
15.00	-6.00	40.00	82.00	12.00	-1.00	-15.00
13.00	-45.00	72.00	210.00	9.00	0.00	-20.00
9.00	-76.00	86.00	228.00	11.00	8.00	-16.00
8.00	-55.00	90.00	254.00	6.00	-2.00	-14.00
4.00	-20.00	149.00	233.00	3.00	-10.00	-8.00
0.00	2.00	189.00	111.00	4.00	-1.00	10.00
-6.00	32.00	157.00	2.00	7.00	7.00	27.00
0.00	51.00	85.00	-83.00	6.00	8.00	19.00
5.00	15.00	31.00	-83.00	20.00	18.00	31.00
3.00	3.00	-5.00	52.00	24.00	22.00	42.00
8.00	3.00	-52.00	119.00	15.00	23.00	42.00
8.00	23.00	-100.00	162.00	13.00	19.00	21.00
8.00	27.00	-147.00	220.00	16.00	15.00	9.00
3.00	-5.00	-120.00	167.00	12.00	5.00	-4.00
-5.00	-26.00	-66.00	65.00	6.00	3.00	-3.00
-4.00	-26.00	-31.00	-32.00	7.00	3.00	-5.00
-8.00	0.00	14.00	-62.00	13.00	11.00	8.00
-7.00	1.00	-1.00	-226.00	11.00	16.00	-2.00
-7.00	-1.00	-27.00	-255.00	10.00	20.00	-4.00
-10.00	13.00	-27.00	-79.00	16.00	22.00	-4.00
-8.00	34.00	-45.00	-21.00	17.00	24.00	-3.00
-5.00	47.00	-62.00	-57.00	19.00	27.00	-4.00
-4.00	29.00	-14.00	-32.00	18.00	19.00	-8.00
-6.00	32.00	39.00	18.00	15.00	13.00	-12.00
-4.00	72.00	57.00	61.00	11.00	10.00	-13.00
-6.00	76.00	88.00	98.00	10.00	7.00	-12.00
-4.00	68.00	77.00	55.00	8.00	5.00	-11.00
1.00	38.00	63.00	71.00	7.00	3.00	-9.00
6.00	32.00	69.00	172.00	9.00	2.00	-2.00
18.00	24.00	40.00	170.00	2.00	0.00	2.00
18.00	41.00	12.00	146.00	6.00	-2.00	5.00
14.00	40.00	-21.00	165.00	7.00	-2.00	0.00
1.00	37.00	-29.00	148.00	13.00	2.00	2.00
-7.00	28.00	2.00	85.00	15.00	-1.00	1.00
-10.00	10.00	20.00	63.00	14.00	-1.00	3.00
-8.00	-2.00	67.00	111.00	4.00	-6.00	-3.00
-4.00	-22.00	61.00	149.00	6.00	-3.00	-2.00
-5.00	5.00	67.00	254.00	6.00	1.00	-1.00
-1.00	44.00	24.00	89.00	10.00	5.00	-2.00
-4.00	47.00	-19.00	-148.00	26.00	22.00	-6.00
-1.00	53.00	-75.00	-445.00	29.00	19.00	-5.00
-1.00	44.00	-111.00	-497.00	30.00	12.00	1.00
2.00	40.00	-125.00	-472.00	23.00	11.00	-2.00
1.00	11.00	-169.00	-508.00	19.00	16.00	-5.00
0.00	-7.00	-191.00	-485.00	16.00	16.00	0.00
1.00	-27.00	-159.00	-246.00	12.00	14.00	1.00
7.00	-23.00	-132.00	-64.00	15.00	17.00	-5.00
12.00	15.00	-91.00	48.00	15.00	15.00	-5.00
10.00	26.00	-24.00	172.00	10.00	9.00	3.00
8.00	25.00	44.00	267.00	6.00	2.00	3.00
-2.00	22.00	125.00	364.00	8.00	5.00	1.00
-8.00	20.00	190.00	420.00	5.00	3.00	3.00
-6.00	25.00	197.00	371.00	3.00	0.00	9.00
-2.00	32.00	180.00	273.00	3.00	0.00	4.00
-6.00	20.00	131.00	179.00	2.00	8.00	11.00
-7.00	4.00	52.00	54.00	10.00	23.00	8.00
-3.00	-36.00	-21.00	-124.00	16.00	35.00	-4.00
1.00	-71.00	-69.00	-256.00	17.00	30.00	3.00
2.00	-58.00	-97.00	-220.00	17.00	18.00	-1.00
3.00	-38.00	-87.00	-233.00	17.00	11.00	-3.00
10.00	1.00	-58.00	-220.00	17.00	15.00	-2.00
10.00	34.00	-30.00	-143.00	16.00	15.00	2.00
4.00	42.00	7.00	-15.00	15.00	10.00	-3.00
-3.00	20.00	40.00	56.00	11.00	10.00	-3.00
0.00	2.00	51.00	90.00	13.00	14.00	-4.00
0.00	-12.00	52.00	106.00	10.00	11.00	-1.00
-1.00	-3.00	49.00	115.00	10.00	7.00	-1.00
-3.00	22.00	59.00	106.00	9.00	1.00	2.00
-1.00	30.00	69.00	110.00	7.00	2.00	-3.00
0.00	40.00	80.00	110.00	9.00	7.00	-2.00
2.00	42.00	80.00	125.00	11.00	9.00	-1.00
8.00	57.00	78.00	174.00	10.00	7.00	-3.00
13.00	72.00	67.00	185.00	10.00	8.00	-1.00
23.00	66.00	35.00	164.00	8.00	6.00	-4.00
21.00	32.00	-4.00	133.00	12.00	9.00	0.00
16.00	18.00	1.00	127.00	17.00	13.00	0.00
5.00	-10.00	24.00	173.00	18.00	10.00	-3.00
2.00	-12.00	28.00	199.00	14.00	5.00	-3.00
-6.00	3.00	18.00	188.00	11.00	-2.00	-10.00
-1.00	7.00	25.00	186.00	8.00	-5.00	-14.00
-1.00	-11.00	25.00	111.00	8.00	0.00	-13.00
-9.00	-10.00	15.00	-13.00	16.00	9.00	-6.00
-12.00	26.00	-5.00	-152.00	17.00	13.00	2.00
-12.00	52.00	-8.00	-224.00	15.00	11.00	9.00
-11.00	79.00	24.00	7.00	10.00	6.00	15.00
-2.00	104.00	39.00	164.00	8.00	7.00	11.00
3.00	115.00	47.00	205.00	6.00	7.00	30.00
13.00	97.00	9.00	136.00	4.00	4.00	26.00
11.00	25.00	-40.00	-95.00	6.00	14.00	12.00
4.00	-36.00	-75.00	-320.00	19.00	31.00	8.00
7.00	-70.00	-107.00	-541.00	22.00	30.00	6.00
9.00	-59.00	-105.00	-511.00	19.00	21.00	2.00
13.00	-54.00	-67.00	-269.00	21.00	20.00	1.00
11.00	-49.00	40.00	-16.00	16.00	14.00	-4.00
7.00	-16.00	92.00	111.00	12.00	11.00	-7.00
1.00	-3.00	115.00	205.00	5.00	1.00	-4.00
-3.00	-8.00	121.00	104.00	3.00	2.00	-2.00
-4.00	-12.00	38.00	-108.00	9.00	10.00	-3.00
0.00	-13.00	-64.00	-230.00	13.00	14.00	-7.00
2.00	-7.00	-137.00	-258.00	15.00	19.00	-9.00
0.00	-5.00	-176.00	-232.00	14.00	22.00	-10.00
-1.00	0.00	-215.00	-220.00	20.00	21.00	-12.00
-2.00	12.00	-205.00	-237.00	17.00	16.00	-3.00
-8.00	1.00	-173.00	-193.00	13.00	11.00	-2.00
-9.00	-13.00	-118.00	-153.00	10.00	9.00	-15.00
-5.00	-13.00	-70.00	-75.00	11.00	17.00	-22.00
-3.00	-3.00	-40.00	29.00	14.00	17.00	-15.00
-4.00	-16.00	4.00	106.00	14.00	9.00	-2.00
0.00	-8.00	43.00	158.00	13.00	3.00	1.00
3.00	-2.00	73.00	211.00	11.00	3.00	10.00
7.00	14.00	91.00	236.00	10.00	4.00	16.00
15.00	18.00	121.00	279.00	11.00	3.00	31.00
13.00	10.00	155.00	297.00	13.00	1.00	23.00
7.00	23.00	171.00	350.00	8.00	-4.00	13.00
2.00	53.00	181.00	397.00	6.00	-2.00	11.00
0.00	58.00	119.00	259.00	3.00	3.00	3.00
-7.00	65.00	40.00	157.00	6.00	7.00	-3.00
-3.00	84.00	-15.00	18.00	9.00	10.00	4.00
0.00	104.00	-61.00	-144.00	18.00	19.00	2.00
1.00	56.00	-101.00	-185.00	26.00	27.00	-2.00
-3.00	-23.00	-117.00	-243.00	22.00	18.00	-7.00
0.00	-65.00	-51.00	-55.00	14.00	9.00	-9.00
4.00	-55.00	-9.00	163.00	12.00	3.00	-11.00
13.00	-10.00	26.00	242.00	7.00	2.00	-9.00
15.00	39.00	46.00	333.00	4.00	1.00	-14.00
15.00	93.00	45.00	285.00	10.00	0.00	2.00
13.00	124.00	42.00	189.00	12.00	3.00	16.00
2.00	104.00	8.00	-7.00	8.00	2.00	-1.00
-1.00	58.00	13.00	-179.00	5.00	6.00	-7.00
-3.00	18.00	-21.00	-341.00	18.00	19.00	-3.00
-4.00	8.00	-75.00	-466.00	20.00	28.00	6.00
-4.00	-7.00	-75.00	-380.00	13.00	22.00	6.00
-8.00	-14.00	-26.00	-111.00	11.00	16.00	2.00
-14.00	-25.00	6.00	41.00	4.00	6.00	-9.00
-12.00	-28.00	8.00	-2.00	6.00	8.00	-6.00
-11.00	-16.00	-8.00	-80.00	12.00	11.00	-1.00
-9.00	10.00	-6.00	-87.00	15.00	16.00	-1.00
-10.00	27.00	18.00	-73.00	19.00	21.00	-6.00
-7.00	38.00	59.00	21.00	17.00	23.00	-7.00
2.00	39.00	62.00	77.00	15.00	21.00	-5.00
0.00	20.00	43.00	105.00	12.00	14.00	0.00
4.00	-11.00	19.00	69.00	11.00	8.00	1.00
9.00	-29.00	21.00	36.00	13.00	9.00	-2.00
11.00	-43.00	18.00	-38.00	18.00	19.00	-6.00
12.00	-55.00	17.00	-12.00	18.00	18.00	-3.00
7.00	-35.00	72.00	141.00	8.00	7.00	4.00
3.00	-6.00	71.00	193.00	2.00	-1.00	-3.00
-1.00	16.00	57.00	208.00	0.00	-4.00	-2.00
-4.00	33.00	48.00	175.00	0.00	-4.00	-2.00
-5.00	72.00	57.00	83.00	5.00	1.00	-1.00
1.00	91.00	32.00	44.00	17.00	7.00	-5.00
-1.00	73.00	-8.00	-33.00	24.00	15.00	-4.00
1.00	45.00	-13.00	-30.00	24.00	21.00	-2.00
2.00	50.00	48.00	158.00	15.00	9.00	-2.00
1.00	68.00	62.00	189.00	11.00	5.00	6.00
-1.00	69.00	36.00	26.00	13.00	2.00	10.00
2.00	75.00	15.00	-84.00	16.00	9.00	0.00
3.00	63.00	-31.00	-197.00	11.00	5.00	2.00
1.00	8.00	-82.00	-255.00	10.00	4.00	3.00
5.00	-53.00	-136.00	-343.00	14.00	12.00	7.00
6.00	-63.00	-146.00	-309.00	22.00	18.00	6.00
4.00	-44.00	-120.00	-187.00	20.00	15.00	10.00
6.00	-29.00	-102.00	-130.00	14.00	12.00	9.00
2.00	-7.00	-101.00	-123.00	13.00	13.00	9.00
-3.00	4.00	-104.00	-90.00	9.00	12.00	14.00
-4.00	18.00	-45.00	7.00	12.00	16.00	10.00
-2.00	18.00	15.00	70.00	11.00	14.00	-3.00
2.00	7.00	46.00	119.00	10.00	11.00	-8.00
3.00	10.00	60.00	152.00	7.00	11.00	-7.00
2.00	12.00	79.00	203.00	4.00	11.00	-5.00
2.00	-6.00	78.00	200.00	6.00	8.00	2.00
2.00	-28.00	59.00	160.00	3.00	8.00	14.00
5.00	-17.00	68.00	141.00	3.00	10.00	18.00
10.00	0.00	64.00	122.00	1.00	10.00	3.00
8.00	17.00	39.00	82.00	5.00	8.00	-3.00
4.00	22.00	3.00	16.00	13.00	10.00	-6.00
1.00	19.00	-17.00	-63.00	15.00	12.00	-2.00
5.00	20.00	3.00	-79.00	10.00	10.00	7.00
4.00	17.00	21.00	35.00	11.00	10.00	4.00
5.00	10.00	26.00	82.00	12.00	12.00	-3.00
2.00	-1.00	33.00	103.00	9.00	8.00	-11.00
1.00	-4.00	42.00	124.00	10.00	6.00	-6.00
6.00	5.00	41.00	144.00	9.00	7.00	-3.00
16.00	31.00	36.00	216.00	9.00	8.00	1.00
16.00	57.00	10.00	214.00	9.00	5.00	-4.00
6.00	43.00	15.00	251.00	7.00	4.00	0.00
-1.00	4.00	38.00	259.00	8.00	3.00	8.00
-2.00	-33.00	25.00	175.00	7.00	-2.00	1.00
-1.00	-29.00	-18.00	-44.00	14.00	4.00	3.00
-1.00	-18.00	-21.00	-224.00	17.00	6.00	11.00
-5.00	-24.00	-53.00	-331.00	15.00	7.00	7.00
-8.00	-16.00	-41.00	-306.00	14.00	6.00	2.00
-6.00	9.00	-27.00	-226.00	17.00	10.00	4.00
5.00	52.00	-12.00	-125.00	19.00	9.00	-2.00
1.00	65.00	46.00	12.00	20.00	8.00	-5.00
1.00	72.00	72.00	121.00	16.00	15.00	-6.00
2.00	73.00	47.00	128.00	18.00	13.00	-7.00
-4.00	73.00	34.00	94.00	22.00	12.00	-12.00
-6.00	43.00	36.00	94.00	15.00	-1.00	-12.00
-6.00	26.00	26.00	-3.00	7.00	-1.00	-11.00
-1.00	-8.00	-30.00	-179.00	7.00	10.00	-13.00
-2.00	-33.00	-129.00	-312.00	6.00	15.00	-10.00
-1.00	-16.00	-150.00	-230.00	13.00	17.00	-4.00
0.00	10.00	-116.00	-192.00	22.00	27.00	2.00
6.00	26.00	-91.00	-200.00	23.00	32.00	0.00
12.00	8.00	-85.00	-141.00	16.00	25.00	-2.00
3.00	3.00	-64.00	-88.00	9.00	12.00	2.00
-5.00	12.00	-27.00	105.00	7.00	15.00	12.00
0.00	34.00	2.00	188.00	6.00	21.00	20.00
2.00	39.00	19.00	175.00	6.00	23.00	24.00
3.00	45.00	40.00	133.00	10.00	25.00	17.00
0.00	59.00	60.00	66.00	6.00	11.00	10.00
-4.00	57.00	64.00	-45.00	13.00	8.00	4.00
-1.00	46.00	68.00	-59.00	15.00	-1.00	3.00
4.00	33.00	74.00	-11.00	15.00	1.00	5.00
6.00	20.00	86.00	185.00	9.00	4.00	6.00
1.00	-1.00	121.00	398.00	5.00	-1.00	12.00
-2.00	-45.00	139.00	455.00	-2.00	-10.00	9.00
-4.00	-43.00	100.00	337.00	0.00	-8.00	-1.00
-5.00	-21.00	37.00	91.00	10.00	0.00	-4.00
-4.00	3.00	-41.00	-164.00	30.00	11.00	1.00
0.00	13.00	-148.00	-481.00	27.00	19.00	2.00
4.00	24.00	-173.00	-547.00	33.00	34.00	-1.00
-2.00	41.00	-115.00	-493.00	26.00	23.00	-8.00
-4.00	-5.00	-35.00	-287.00	23.00	17.00	-16.00
-3.00	-41.00	20.00	-48.00	18.00	6.00	-23.00
1.00	-27.00	49.00	80.00	14.00	5.00	-9.00
3.00	11.00	46.00	158.00	8.00	4.00	-2.00
3.00	70.00	20.00	245.00	9.00	5.00	5.00
3.00	72.00	18.00	314.00	11.00	7.00	1.00
-2.00	47.00	31.00	268.00	19.00	9.00	4.00
0.00	31.00	10.00	138.00	15.00	7.00	2.00
9.00	61.00	5.00	70.00	14.00	5.00	2.00
12.00	63.00	19.00	13.00	7.00	1.00	1.00
9.00	63.00	14.00	-92.00	4.00	3.00	8.00
7.00	50.00	-21.00	-119.00	7.00	7.00	14.00
4.00	21.00	-76.00	-201.00	9.00	10.00	2.00
4.00	0.00	-52.00	-149.00	15.00	10.00	3.00
-2.00	-9.00	-18.00	-86.00	13.00	3.00	2.00
-2.00	-35.00	0.00	-76.00	17.00	8.00	8.00
-4.00	-58.00	9.00	-15.00	18.00	13.00	11.00
-3.00	-46.00	1.00	5.00	16.00	15.00	2.00
0.00	-26.00	6.00	4.00	16.00	16.00	4.00
0.00	-2.00	13.00	15.00	15.00	13.00	1.00
3.00	29.00	8.00	26.00	13.00	11.00	-3.00
-1.00	31.00	12.00	52.00	11.00	12.00	-1.00
2.00	12.00	20.00	94.00	8.00	12.00	0.00
-1.00	-3.00	21.00	113.00	7.00	13.00	1.00
-1.00	-7.00	28.00	126.00	6.00	12.00	6.00
-1.00	-8.00	34.00	122.00	8.00	13.00	-7.00
-5.00	1.00	36.00	129.00	9.00	15.00	-11.00
-6.00	3.00	34.00	127.00	7.00	14.00	-4.00
-5.00	-3.00	42.00	139.00	10.00	12.00	-6.00
3.00	-8.00	59.00	165.00	7.00	7.00	-4.00
9.00	-20.00	67.00	145.00	9.00	7.00	7.00
15.00	-15.00	93.00	125.00	10.00	5.00	6.00
18.00	7.00	87.00	44.00	12.00	8.00	4.00
18.00	33.00	64.00	6.00	8.00	7.00	1.00
8.00	49.00	44.00	27.00	10.00	7.00	-2.00
3.00	47.00	21.00	61.00	9.00	9.00	-1.00
-4.00	42.00	3.00	161.00	12.00	10.00	-4.00
-7.00	30.00	-32.00	236.00	11.00	8.00	-6.00
-4.00	17.00	-78.00	197.00	10.00	9.00	-9.00
-6.00	17.00	-74.00	152.00	14.00	11.00	-8.00
-5.00	18.00	-52.00	-36.00	14.00	9.00	0.00
-8.00	10.00	-52.00	-241.00	16.00	8.00	0.00
-4.00	14.00	-94.00	-504.00	22.00	11.00	-1.00
-1.00	24.00	-101.00	-550.00	23.00	5.00	9.00
3.00	24.00	-73.00	-384.00	19.00	5.00	10.00
3.00	-15.00	-46.00	-218.00	16.00	3.00	5.00
3.00	-71.00	-10.00	-75.00	14.00	2.00	1.00
4.00	-49.00	40.00	4.00	11.00	3.00	1.00
4.00	-34.00	51.00	44.00	14.00	6.00	0.00
6.00	-30.00	36.00	24.00	13.00	6.00	-6.00
7.00	-8.00	38.00	59.00	8.00	6.00	2.00
7.00	36.00	36.00	114.00	8.00	4.00	1.00
5.00	83.00	34.00	183.00	9.00	3.00	-5.00
-3.00	89.00	57.00	209.00	16.00	7.00	-8.00
-8.00	75.00	36.00	146.00	21.00	15.00	1.00
-2.00	94.00	4.00	107.00	19.00	12.00	11.00
0.00	78.00	-32.00	10.00	17.00	13.00	14.00
1.00	56.00	-43.00	-64.00	18.00	24.00	12.00
4.00	52.00	-61.00	-131.00	18.00	24.00	6.00
2.00	44.00	-41.00	-129.00	17.00	23.00	14.00
3.00	39.00	-36.00	-104.00	8.00	15.00	9.00
6.00	12.00	-16.00	-21.00	6.00	11.00	7.00
1.00	-3.00	-1.00	38.00	13.00	11.00	3.00
5.00	11.00	11.00	33.00	14.00	17.00	-2.00
5.00	5.00	14.00	27.00	9.00	15.00	-8.00
7.00	-11.00	-1.00	26.00	11.00	12.00	-2.00
7.00	-3.00	-19.00	2.00	21.00	19.00	7.00
9.00	15.00	-3.00	65.00	20.00	15.00	-2.00
12.00	45.00	13.00	108.00	16.00	9.00	-4.00
12.00	51.00	13.00	61.00	13.00	6.00	-10.00
10.00	34.00	14.00	16.00	18.00	9.00	-2.00
2.00	5.00	19.00	-8.00	14.00	8.00	-4.00
1.00	-18.00	26.00	-28.00	11.00	10.00	-1.00
1.00	-21.00	24.00	22.00	9.00	7.00	12.00
-1.00	-9.00	45.00	121.00	10.00	6.00	16.00
-3.00	-1.00	64.00	197.00	13.00	9.00	4.00
-1.00	3.00	69.00	233.00	13.00	4.00	7.00
-6.00	6.00	61.00	113.00	11.00	4.00	13.00
-8.00	1.00	42.00	7.00	14.00	5.00	10.00
-9.00	-10.00	16.00	-84.00	11.00	0.00	2.00
-6.00	-15.00	-3.00	-174.00	9.00	5.00	0.00
-9.00	-24.00	-18.00	-217.00	15.00	14.00	-2.00
-1.00	-38.00	-26.00	-232.00	18.00	18.00	1.00
1.00	-66.00	-36.00	-154.00	19.00	16.00	-2.00
-2.00	-84.00	-15.00	11.00	10.00	7.00	-3.00
0.00	-70.00	35.00	170.00	5.00	-2.00	-4.00
1.00	-30.00	73.00	265.00	6.00	-1.00	2.00
1.00	19.00	115.00	254.00	14.00	4.00	3.00
8.00	21.00	144.00	253.00	11.00	0.00	1.00
9.00	48.00	200.00	251.00	12.00	-11.00	-1.00
12.00	79.00	201.00	117.00	20.00	0.00	-1.00
6.00	58.00	148.00	-5.00	28.00	12.00	-2.00
-4.00	25.00	110.00	41.00	12.00	7.00	-10.00
-4.00	16.00	38.00	110.00	4.00	9.00	-9.00
-4.00	44.00	-133.00	37.00	6.00	14.00	-14.00
-4.00	90.00	-226.00	-40.00	14.00	17.00	0.00
0.00	103.00	-257.00	-67.00	16.00	16.00	7.00
-6.00	75.00	-250.00	-188.00	9.00	18.00	-2.00
-5.00	53.00	-299.00	-458.00	13.00	33.00	6.00
1.00	60.00	-344.00	-732.00	31.00	48.00	16.00
5.00	61.00	-298.00	-659.00	33.00	36.00	16.00
-3.00	40.00	-206.00	-367.00	22.00	21.00	5.00
-6.00	13.00	-98.00	-106.00	15.00	17.00	-9.00
-3.00	-4.00	-30.00	83.00	13.00	16.00	-13.00
6.00	5.00	39.00	202.00	13.00	13.00	-13.00
4.00	6.00	113.00	251.00	12.00	6.00	-11.00
0.00	7.00	105.00	175.00	9.00	5.00	-1.00
2.00	21.00	68.00	-38.00	9.00	8.00	19.00
4.00	13.00	53.00	-113.00	14.00	12.00	29.00
4.00	6.00	47.00	-74.00	12.00	7.00	21.00
6.00	-5.00	26.00	-28.00	8.00	4.00	28.00
11.00	-24.00	-14.00	-54.00	7.00	7.00	16.00
7.00	-33.00	-28.00	-14.00	10.00	9.00	4.00
5.00	-26.00	-2.00	61.00	9.00	6.00	-2.00
5.00	-15.00	56.00	196.00	5.00	3.00	-2.00
1.00	10.00	96.00	350.00	0.00	-2.00	-4.00
-1.00	25.00	120.00	405.00	-5.00	-8.00	-8.00
0.00	28.00	132.00	408.00	-5.00	-8.00	8.00
2.00	51.00	136.00	365.00	-3.00	-9.00	7.00
-4.00	21.00	108.00	198.00	-2.00	-12.00	-6.00
-6.00	9.00	91.00	0.00	24.00	5.00	-6.00
-4.00	-3.00	25.00	-199.00	34.00	24.00	-2.00
-2.00	-33.00	0.00	-210.00	31.00	23.00	0.00
4.00	-7.00	12.00	-136.00	29.00	18.00	-3.00
5.00	24.00	29.00	-108.00	19.00	11.00	-1.00
-1.00	40.00	36.00	-50.00	12.00	9.00	-2.00
-4.00	67.00	47.00	57.00	11.00	8.00	4.00
-4.00	68.00	41.00	78.00	12.00	8.00	-1.00
-8.00	64.00	27.00	68.00	13.00	11.00	0.00
-6.00	13.00	2.00	-12.00	11.00	4.00	3.00
-4.00	-4.00	0.00	6.00	12.00	5.00	-3.00
-1.00	4.00	25.00	222.00	6.00	0.00	-11.00
4.00	11.00	38.00	300.00	4.00	2.00	0.00
10.00	5.00	36.00	239.00	5.00	6.00	15.00
16.00	-13.00	26.00	57.00	19.00	18.00	3.00
22.00	-43.00	38.00	-85.00	24.00	20.00	3.00
19.00	-57.00	32.00	-151.00	16.00	12.00	1.00
20.00	-59.00	-5.00	-252.00	17.00	19.00	2.00
17.00	-45.00	-26.00	-243.00	15.00	22.00	-7.00
5.00	1.00	-9.00	-56.00	11.00	14.00	-11.00
-1.00	47.00	-6.00	57.00	10.00	14.00	-2.00
-4.00	86.00	-20.00	38.00	17.00	22.00	2.00
-10.00	88.00	-51.00	-92.00	17.00	20.00	-6.00
-13.00	68.00	-70.00	-193.00	11.00	13.00	-6.00
-8.00	52.00	-52.00	-157.00	11.00	12.00	-7.00
-6.00	35.00	-56.00	-134.00	11.00	10.00	-2.00
-8.00	13.00	-46.00	-66.00	12.00	8.00	0.00
-7.00	-4.00	-6.00	33.00	12.00	7.00	9.00
-4.00	-25.00	17.00	69.00	9.00	6.00	10.00
2.00	-13.00	24.00	91.00	10.00	11.00	24.00
0.00	-5.00	40.00	138.00	9.00	9.00	30.00
3.00	0.00	65.00	177.00	9.00	5.00	28.00
7.00	-4.00	56.00	150.00	9.00	7.00	14.00
2.00	2.00	31.00	94.00	9.00	6.00	1.00
7.00	2.00	13.00	88.00	9.00	5.00	-1.00
14.00	-28.00	10.00	88.00	8.00	8.00	0.00
13.00	-58.00	-6.00	74.00	9.00	9.00	-1.00
10.00	-18.00	-18.00	46.00	16.00	13.00	-5.00
12.00	1.00	-30.00	40.00	18.00	14.00	-6.00
10.00	6.00	-57.00	-37.00	16.00	5.00	-5.00
7.00	47.00	-50.00	-58.00	20.00	3.00	-7.00
0.00	106.00	-34.00	-79.00	17.00	6.00	-6.00
0.00	159.00	-15.00	-47.00	15.00	5.00	-2.00
-6.00	143.00	-1.00	9.00	12.00	1.00	-6.00
-7.00	87.00	15.00	14.00	10.00	3.00	-5.00
-3.00	48.00	48.00	134.00	4.00	-1.00	-8.00
-2.00	29.00	87.00	259.00	2.00	-4.00	-3.00
-5.00	9.00	92.00	248.00	3.00	-3.00	2.00
-7.00	-1.00	63.00	140.00	11.00	8.00	4.00
-9.00	-4.00	20.00	3.00	12.00	11.00	-2.00
-6.00	-4.00	-41.00	-138.00	9.00	19.00	2.00
-1.00	-14.00	-85.00	-261.00	18.00	33.00	6.00
2.00	-16.00	-104.00	-297.00	23.00	32.00	2.00
3.00	-13.00	-81.00	-172.00	27.00	31.00	-4.00
4.00	-11.00	-23.00	-45.00	20.00	20.00	0.00
6.00	-21.00	67.00	158.00	16.00	10.00	1.00
5.00	-31.00	120.00	341.00	8.00	6.00	-1.00
3.00	-29.00	119.00	381.00	1.00	4.00	-3.00
4.00	-10.00	85.00	350.00	-4.00	4.00	8.00
3.00	18.00	49.00	256.00	-5.00	0.00	-1.00
4.00	26.00	-31.00	39.00	1.00	2.00	0.00
5.00	31.00	-89.00	-220.00	3.00	3.00	5.00
0.00	36.00	-150.00	-594.00	14.00	14.00	10.00
-1.00	40.00	-194.00	-752.00	27.00	23.00	-3.00
7.00	25.00	-191.00	-642.00	30.00	31.00	-2.00
1.00	9.00	-135.00	-402.00	26.00	29.00	-1.00
-3.00	11.00	-72.00	-173.00	19.00	19.00	0.00
-4.00	19.00	-17.00	-29.00	17.00	14.00	6.00
-3.00	37.00	15.00	20.00	19.00	14.00	15.00
-3.00	26.00	27.00	68.00	16.00	12.00	6.00
-4.00	11.00	50.00	144.00	14.00	9.00	4.00
-4.00	8.00	59.00	169.00	11.00	7.00	7.00
1.00	3.00	62.00	169.00	9.00	5.00	5.00
10.00	-5.00	69.00	154.00	7.00	3.00	3.00
15.00	3.00	87.00	139.00	7.00	3.00	4.00
19.00	8.00	60.00	67.00	5.00	1.00	4.00
20.00	5.00	69.00	90.00	4.00	0.00	3.00
11.00	-10.00	69.00	107.00	11.00	6.00	0.00
9.00	-22.00	75.00	127.00	17.00	13.00	2.00
6.00	-13.00	76.00	157.00	13.00	8.00	-1.00
0.00	-24.00	56.00	137.00	10.00	6.00	-4.00
-9.00	-12.00	32.00	142.00	8.00	6.00	-7.00
-14.00	31.00	20.00	129.00	11.00	10.00	-4.00
-19.00	67.00	4.00	92.00	12.00	7.00	5.00
-16.00	65.00	-29.00	65.00	8.00	6.00	-5.00
-16.00	50.00	-48.00	86.00	11.00	9.00	-8.00
-5.00	54.00	-67.00	8.00	12.00	9.00	-6.00
-7.00	48.00	-51.00	-63.00	18.00	15.00	-9.00
-2.00	28.00	-35.00	-113.00	14.00	14.00	0.00
1.00	4.00	-45.00	-154.00	7.00	8.00	-5.00
4.00	-6.00	-11.00	-128.00	3.00	11.00	4.00
16.00	7.00	47.00	98.00	1.00	7.00	4.00
20.00	12.00	96.00	357.00	6.00	7.00	1.00
11.00	2.00	95.00	422.00	4.00	3.00	-1.00
1.00	-2.00	83.00	413.00	6.00	3.00	11.00
-9.00	-1.00	61.00	267.00	4.00	-1.00	17.00
-9.00	18.00	43.00	44.00	6.00	1.00	20.00
-10.00	10.00	-9.00	-245.00	8.00	20.00	10.00
-5.00	-3.00	-77.00	-480.00	9.00	21.00	4.00
1.00	8.00	-112.00	-539.00	9.00	14.00	3.00
0.00	2.00	-88.00	-395.00	16.00	13.00	5.00
-5.00	6.00	-39.00	-229.00	33.00	31.00	5.00
-9.00	-2.00	-10.00	-134.00	26.00	28.00	5.00
-7.00	-3.00	12.00	-85.00	17.00	22.00	6.00
-2.00	15.00	13.00	-63.00	13.00	14.00	6.00
-6.00	-2.00	5.00	-32.00	14.00	10.00	-1.00
-5.00	-24.00	-11.00	-25.00	17.00	11.00	-2.00
0.00	-12.00	-22.00	-25.00	13.00	9.00	-4.00
-1.00	5.00	-32.00	-6.00	12.00	12.00	-3.00
3.00	29.00	-25.00	15.00	16.00	10.00	-4.00
5.00	31.00	8.00	53.00	10.00	8.00	-4.00
4.00	40.00	35.00	124.00	6.00	2.00	3.00
9.00	52.00	42.00	160.00	8.00	2.00	0.00
5.00	26.00	36.00	141.00	12.00	6.00	-2.00
4.00	-9.00	36.00	147.00	12.00	8.00	1.00
1.00	-34.00	22.00	133.00	7.00	5.00	7.00
-1.00	-31.00	17.00	147.00	9.00	6.00	-1.00
-2.00	3.00	23.00	129.00	8.00	5.00	-9.00
2.00	38.00	18.00	104.00	9.00	8.00	-11.00
2.00	71.00	9.00	93.00	11.00	10.00	-7.00
-5.00	122.00	9.00	37.00	13.00	10.00	9.00
2.00	132.00	-3.00	-7.00	10.00	5.00	10.00
15.00	89.00	-5.00	-61.00	11.00	8.00	11.00
26.00	50.00	-2.00	-53.00	14.00	12.00	3.00
28.00	19.00	7.00	-16.00	11.00	11.00	-8.00
28.00	0.00	16.00	-29.00	11.00	10.00	-6.00
18.00	-14.00	4.00	-51.00	12.00	8.00	1.00
11.00	0.00	7.00	10.00	11.00	4.00	-1.00
10.00	14.00	-1.00	39.00	18.00	10.00	-3.00
9.00	27.00	10.00	41.00	22.00	12.00	0.00
4.00	23.00	68.00	66.00	15.00	4.00	7.00
0.00	20.00	59.00	48.00	14.00	6.00	8.00
-6.00	17.00	38.00	0.00	12.00	10.00	0.00
-8.00	-4.00	-29.00	-120.00	13.00	13.00	2.00
-12.00	-16.00	-74.00	-181.00	11.00	14.00	2.00
-18.00	-25.00	-86.00	-178.00	11.00	16.00	-5.00
-15.00	-18.00	-91.00	-75.00	12.00	18.00	-7.00
-9.00	-25.00	-68.00	-7.00	11.00	16.00	-7.00
-6.00	-31.00	-45.00	23.00	11.00	11.00	-3.00
-3.00	-24.00	-7.00	68.00	9.00	7.00	6.00
-1.00	-12.00	28.00	104.00	10.00	9.00	9.00
-1.00	-10.00	54.00	153.00	9.00	6.00	2.00
1.00	-35.00	53.00	158.00	9.00	9.00	-1.00
1.00	-40.00	59.00	181.00	9.00	8.00	0.00
5.00	-36.00	61.00	135.00	9.00	9.00	-1.00
5.00	-24.00	63.00	89.00	11.00	11.00	-3.00
6.00	6.00	37.00	56.00	12.00	13.00	1.00
12.00	49.00	6.00	19.00	16.00	13.00	2.00
8.00	80.00	15.00	52.00	17.00	11.00	-2.00
10.00	96.00	41.00	82.00	9.00	7.00	-5.00
11.00	89.00	83.00	103.00	5.00	4.00	-6.00
8.00	64.00	87.00	101.00	-2.00	-5.00	1.00
6.00	49.00	87.00	90.00	-5.00	-10.00	5.00
-4.00	42.00	69.00	101.00	6.00	1.00	4.00
-1.00	52.00	39.00	115.00	18.00	10.00	6.00
-3.00	31.00	-38.00	42.00	26.00	16.00	4.00
-4.00	24.00	-108.00	46.00	24.00	21.00	4.00
-2.00	38.00	-154.00	-77.00	22.00	22.00	4.00
1.00	42.00	-159.00	-181.00	26.00	20.00	9.00
-5.00	21.00	-176.00	-358.00	24.00	14.00	-3.00
-3.00	17.00	-177.00	-555.00	32.00	23.00	-11.00
-1.00	19.00	-112.00	-452.00	23.00	17.00	-3.00
0.00	0.00	-70.00	-351.00	13.00	8.00	-8.00
1.00	-24.00	-36.00	-268.00	13.00	12.00	-6.00
7.00	-30.00	-31.00	-221.00	12.00	16.00	4.00
8.00	-9.00	-20.00	-135.00	14.00	18.00	10.00
6.00	-6.00	8.00	-19.00	15.00	14.00	9.00
2.00	-9.00	37.00	109.00	11.00	10.00	1.00
-5.00	-12.00	50.00	194.00	9.00	9.00	-2.00
-3.00	-12.00	57.00	200.00	7.00	6.00	7.00
-4.00	-9.00	59.00	196.00	7.00	4.00	4.00
-1.00	-11.00	70.00	173.00	12.00	11.00	10.00
0.00	4.00	86.00	192.00	13.00	12.00	15.00
0.00	16.00	74.00	169.00	10.00	4.00	8.00
-2.00	17.00	58.00	104.00	6.00	6.00	1.00
2.00	20.00	59.00	101.00	7.00	10.00	-4.00
4.00	1.00	52.00	70.00	7.00	12.00	-2.00
5.00	-7.00	33.00	-44.00	13.00	18.00	2.00
8.00	5.00	20.00	-61.00	14.00	15.00	0.00
13.00	19.00	20.00	0.00	16.00	14.00	-3.00
18.00	14.00	14.00	15.00	15.00	13.00	-9.00
20.00	21.00	13.00	18.00	11.00	12.00	-8.00
15.00	32.00	9.00	7.00	10.00	11.00	-5.00
8.00	29.00	14.00	28.00	9.00	10.00	2.00
1.00	21.00	21.00	54.00	7.00	8.00	-1.00
-3.00	2.00	24.00	65.00	11.00	6.00	-5.00
-6.00	11.00	25.00	86.00	9.00	-3.00	-3.00
-10.00	4.00	34.00	125.00	6.00	-8.00	-5.00
-14.00	-25.00	42.00	192.00	5.00	-13.00	-4.00
-15.00	-47.00	47.00	229.00	3.00	-14.00	-12.00
-6.00	-17.00	33.00	217.00	4.00	-13.00	-13.00
-8.00	21.00	14.00	141.00	8.00	-11.00	3.00
-15.00	42.00	22.00	29.00	12.00	-6.00	3.00
-16.00	62.00	21.00	-112.00	17.00	4.00	5.00
-20.00	84.00	0.00	-207.00	25.00	16.00	7.00
-17.00	79.00	-8.00	-221.00	26.00	21.00	9.00
-9.00	60.00	1.00	-98.00	20.00	11.00	3.00
-7.00	33.00	2.00	-72.00	18.00	5.00	-4.00
-4.00	4.00	-12.00	-25.00	19.00	11.00	-6.00
3.00	-2.00	-36.00	-25.00	18.00	13.00	6.00
7.00	-1.00	-65.00	-75.00	12.00	14.00	17.00
7.00	-7.00	-74.00	-65.00	14.00	13.00	5.00
11.00	-1.00	-54.00	-7.00	14.00	15.00	-4.00
7.00	5.00	-38.00	-3.00	19.00	16.00	-7.00
11.00	11.00	-43.00	-12.00	16.00	12.00	-7.00
8.00	31.00	-19.00	14.00	15.00	11.00	2.00
2.00	42.00	10.00	119.00	16.00	13.00	3.00
2.00	36.00	18.00	155.00	16.00	15.00	3.00
9.00	36.00	31.00	141.00	13.00	12.00	0.00
9.00	14.00	31.00	143.00	6.00	12.00	-3.00
7.00	-16.00	14.00	124.00	3.00	11.00	9.00
9.00	-17.00	-1.00	48.00	3.00	9.00	6.00
4.00	10.00	-19.00	-55.00	4.00	8.00	1.00
2.00	27.00	-21.00	-28.00	3.00	17.00	13.00
-1.00	60.00	-18.00	47.00	5.00	17.00	8.00
-3.00	60.00	0.00	45.00	5.00	13.00	-2.00
-2.00	30.00	23.00	57.00	10.00	14.00	-2.00
0.00	-3.00	62.00	19.00	15.00	15.00	-15.00
-1.00	-43.00	66.00	-59.00	15.00	15.00	-12.00
2.00	-50.00	43.00	-129.00	14.00	13.00	-6.00
5.00	-22.00	35.00	-121.00	15.00	20.00	-8.00
12.00	5.00	46.00	23.00	20.00	24.00	-4.00
13.00	35.00	36.00	133.00	13.00	16.00	-1.00
19.00	84.00	7.00	124.00	9.00	10.00	9.00
17.00	103.00	-34.00	8.00	22.00	11.00	-2.00
