
2.00	39.00	-68.00	-5.00	9.00	-2.00	1.00
14.00	26.00	-75.00	-4.00	8.00	2.00	0.00
32.00	11.00	-104.00	-26.00	2.00	-2.00	-2.00
49.00	-13.00	-110.00	-88.00	5.00	-4.00	-1.00
44.00	-37.00	-179.00	-196.00	9.00	-5.00	-5.00
41.00	-88.00	-228.00	-395.00	12.00	12.00	-3.00
61.00	-147.00	-232.00	-514.00	11.00	27.00	-1.00
75.00	-183.00	-198.00	-450.00	7.00	30.00	4.00
48.00	-155.00	-102.00	-341.00	-2.00	22.00	-5.00
-12.00	-50.00	-4.00	-146.00	-6.00	14.00	-12.00
-4.00	73.00	132.00	106.00	2.00	8.00	-6.00
19.00	167.00	288.00	380.00	4.00	-7.00	-5.00
13.00	216.00	389.00	522.00	-2.00	-19.00	-6.00
35.00	233.00	395.00	551.00	-3.00	-19.00	-13.00
42.00	212.00	295.00	447.00	7.00	-8.00	-20.00
-8.00	162.00	168.00	248.00	20.00	7.00	-20.00
-38.00	131.00	77.00	85.00	31.00	15.00	-24.00
-58.00	111.00	12.00	18.00	36.00	8.00	-15.00
-78.00	64.00	-27.00	52.00	45.00	9.00	-8.00
-54.00	38.00	-10.00	156.00	51.00	7.00	-5.00
3.00	37.00	16.00	260.00	59.00	10.00	6.00
43.00	22.00	3.00	286.00	47.00	10.00	22.00
30.00	-34.00	7.00	187.00	37.00	15.00	35.00
-13.00	-114.00	12.00	95.00	26.00	18.00	50.00
-21.00	-147.00	-20.00	33.00	28.00	31.00	53.00
-3.00	-118.00	-58.00	-76.00	23.00	36.00	55.00
-13.00	-56.00	-151.00	-218.00	21.00	35.00	47.00
-23.00	-20.00	-204.00	-375.00	16.00	35.00	38.00
-42.00	14.00	-234.00	-532.00	13.00	37.00	26.00
-25.00	59.00	-211.00	-571.00	15.00	37.00	16.00
-1.00	75.00	-153.00	-465.00	18.00	26.00	6.00
8.00	101.00	-52.00	-243.00	14.00	8.00	-1.00
53.00	99.00	47.00	46.00	8.00	-6.00	-7.00
69.00	42.00	99.00	306.00	0.00	-11.00	-13.00
80.00	-3.00	208.00	466.00	6.00	-11.00	-19.00
67.00	-16.00	246.00	507.00	9.00	-9.00	-20.00
67.00	-1.00	219.00	414.00	10.00	-6.00	-32.00
62.00	5.00	134.00	243.00	3.00	-2.00	-29.00
49.00	8.00	62.00	86.00	-4.00	-3.00	-22.00
23.00	13.00	70.00	57.00	-16.00	-1.00	-21.00
1.00	30.00	44.00	85.00	-24.00	7.00	-19.00
-12.00	3.00	-24.00	44.00	-27.00	18.00	-25.00
-6.00	-48.00	-76.00	-5.00	-43.00	17.00	-24.00
-1.00	-43.00	-50.00	-34.00	-35.00	11.00	-20.00
-49.00	19.00	-36.00	-24.00	-23.00	10.00	-18.00
-82.00	61.00	-57.00	-91.00	-16.00	5.00	0.00
-110.00	78.00	-149.00	-155.00	-2.00	14.00	14.00
-100.00	71.00	-182.00	-208.00	3.00	14.00	16.00
-81.00	43.00	-171.00	-196.00	24.00	15.00	11.00
-33.00	4.00	-92.00	-121.00	48.00	13.00	5.00
-11.00	-16.00	-52.00	-47.00	74.00	13.00	20.00
-16.00	-24.00	13.00	28.00	85.00	7.00	31.00
-55.00	-13.00	165.00	84.00	78.00	4.00	33.00
-63.00	16.00	150.00	86.00	64.00	4.00	31.00
-30.00	28.00	127.00	59.00	58.00	2.00	26.00
58.00	23.00	106.00	-3.00	56.00	-3.00	25.00
121.00	27.00	49.00	-54.00	37.00	-8.00	36.00
141.00	20.00	9.00	-36.00	29.00	-2.00	31.00
128.00	-2.00	-14.00	-18.00	24.00	6.00	20.00
97.00	-7.00	-42.00	-18.00	27.00	16.00	15.00
57.00	-6.00	-71.00	-16.00	28.00	21.00	12.00
23.00	-9.00	-46.00	-40.00	19.00	19.00	5.00
-4.00	-24.00	-61.00	-102.00	14.00	24.00	-2.00
-14.00	-7.00	-78.00	-111.00	15.00	29.00	-3.00
-3.00	-5.00	-54.00	-85.00	14.00	34.00	-11.00
-11.00	-28.00	-1.00	-90.00	15.00	35.00	-13.00
-13.00	-43.00	20.00	-95.00	10.00	30.00	-16.00
-17.00	-44.00	29.00	-96.00	5.00	26.00	-18.00
-31.00	-57.00	59.00	-49.00	1.00	20.00	-22.00
-21.00	-67.00	44.00	4.00	-14.00	9.00	-24.00
-30.00	-59.00	9.00	60.00	-27.00	-3.00	-28.00
1.00	-36.00	-14.00	73.00	-28.00	-8.00	-24.00
-2.00	-22.00	9.00	38.00	-14.00	3.00	-18.00
-24.00	-50.00	32.00	-58.00	-6.00	8.00	-12.00
-47.00	-68.00	-2.00	-146.00	-11.00	4.00	-11.00
-90.00	-26.00	-39.00	-127.00	-15.00	4.00	-12.00
-101.00	50.00	-34.00	-47.00	-12.00	1.00	-11.00
-115.00	133.00	56.00	60.00	-9.00	-3.00	-8.00
-51.00	204.00	48.00	164.00	-8.00	-7.00	-11.00
35.00	228.00	6.00	296.00	0.00	-2.00	-15.00
66.00	224.00	-16.00	325.00	-2.00	-1.00	-7.00
63.00	198.00	-13.00	280.00	0.00	8.00	2.00
58.00	110.00	-11.00	200.00	13.00	25.00	10.00
25.00	45.00	-14.00	99.00	21.00	22.00	14.00
19.00	21.00	22.00	34.00	23.00	14.00	18.00
39.00	14.00	53.00	-11.00	23.00	10.00	15.00
51.00	15.00	73.00	-21.00	24.00	5.00	14.00
9.00	8.00	131.00	7.00	26.00	8.00	15.00
-32.00	2.00	157.00	37.00	34.00	11.00	18.00
-19.00	3.00	45.00	-20.00	29.00	9.00	17.00
-20.00	-2.00	-76.00	-158.00	26.00	15.00	15.00
-27.00	-33.00	-232.00	-230.00	17.00	13.00	13.00
1.00	-51.00	-247.00	-209.00	15.00	14.00	10.00
34.00	-81.00	-163.00	-145.00	4.00	6.00	10.00
41.00	-91.00	-98.00	-35.00	-2.00	2.00	6.00
47.00	-74.00	-81.00	153.00	4.00	7.00	8.00
70.00	-60.00	26.00	240.00	2.00	0.00	5.00
67.00	-36.00	109.00	225.00	-4.00	-6.00	-1.00
20.00	22.00	164.00	181.00	-9.00	-4.00	-9.00
-23.00	66.00	130.00	115.00	-8.00	-1.00	-20.00
-60.00	70.00	60.00	51.00	2.00	11.00	-23.00
-48.00	53.00	34.00	-86.00	4.00	8.00	-14.00
-34.00	29.00	12.00	-193.00	8.00	12.00	-7.00
-6.00	23.00	-40.00	-228.00	14.00	19.00	-4.00
-1.00	8.00	-54.00	-294.00	25.00	29.00	0.00
-17.00	16.00	-4.00	-314.00	28.00	28.00	11.00
-16.00	20.00	87.00	-166.00	24.00	19.00	9.00
21.00	20.00	133.00	50.00	22.00	10.00	6.00
19.00	-2.00	85.00	227.00	19.00	7.00	4.00
-15.00	-2.00	77.00	325.00	27.00	6.00	5.00
-28.00	17.00	120.00	407.00	28.00	2.00	-2.00
-23.00	33.00	95.00	429.00	27.00	-3.00	-16.00
-14.00	44.00	99.00	322.00	19.00	-7.00	-23.00
-12.00	29.00	-16.00	143.00	14.00	-1.00	-15.00
15.00	0.00	-124.00	32.00	20.00	13.00	-21.00
31.00	-12.00	-134.00	-87.00	23.00	22.00	-18.00
1.00	-20.00	-58.00	-121.00	22.00	22.00	-14.00
-23.00	-20.00	1.00	-105.00	14.00	14.00	-10.00
-4.00	-28.00	18.00	-84.00	12.00	7.00	2.00
12.00	-33.00	32.00	-89.00	15.00	8.00	13.00
43.00	-9.00	-54.00	-112.00	12.00	6.00	23.00
52.00	27.00	-105.00	-170.00	6.00	11.00	29.00
49.00	35.00	-146.00	-302.00	1.00	19.00	26.00
41.00	3.00	-173.00	-319.00	3.00	23.00	24.00
17.00	-14.00	-152.00	-263.00	8.00	19.00	25.00
-2.00	-14.00	-78.00	-147.00	14.00	12.00	25.00
1.00	-14.00	36.00	22.00	16.00	6.00	21.00
5.00	-16.00	117.00	167.00	13.00	1.00	7.00
8.00	8.00	217.00	308.00	15.00	-4.00	-10.00
8.00	-7.00	217.00	339.00	9.00	-3.00	-23.00
12.00	-1.00	177.00	285.00	5.00	-3.00	-24.00
35.00	13.00	162.00	211.00	-2.00	11.00	-18.00
47.00	23.00	101.00	106.00	-9.00	7.00	-11.00
32.00	-2.00	31.00	27.00	-9.00	14.00	-4.00
-22.00	10.00	75.00	-116.00	-10.00	16.00	-2.00
-85.00	37.00	101.00	-183.00	-4.00	20.00	8.00
-147.00	60.00	19.00	-209.00	-4.00	18.00	9.00
-101.00	98.00	-45.00	-172.00	0.00	25.00	17.00
-63.00	85.00	-111.00	-116.00	0.00	19.00	20.00
-73.00	59.00	-134.00	-85.00	-8.00	15.00	19.00
-71.00	11.00	-119.00	-53.00	-3.00	8.00	11.00
-125.00	35.00	-157.00	34.00	-2.00	1.00	9.00
-93.00	108.00	-125.00	165.00	12.00	5.00	7.00
4.00	142.00	-28.00	231.00	29.00	9.00	9.00
83.00	151.00	-38.00	118.00	38.00	2.00	7.00
165.00	143.00	-60.00	50.00	47.00	-1.00	6.00
251.00	125.00	-79.00	54.00	66.00	7.00	9.00
245.00	80.00	-58.00	47.00	81.00	14.00	9.00
159.00	32.00	-53.00	-6.00	84.00	16.00	4.00
85.00	-28.00	-78.00	-21.00	89.00	22.00	3.00
23.00	-80.00	-99.00	-16.00	85.00	31.00	2.00
1.00	-91.00	-58.00	5.00	65.00	34.00	-1.00
-6.00	-74.00	0.00	-20.00	37.00	25.00	-7.00
-13.00	-55.00	17.00	-107.00	5.00	14.00	-8.00
-36.00	-41.00	40.00	-109.00	-2.00	3.00	-8.00
-31.00	-40.00	102.00	-93.00	0.00	2.00	-8.00
-11.00	-46.00	89.00	-84.00	-10.00	-11.00	-14.00
-1.00	-40.00	25.00	-13.00	-10.00	-3.00	-13.00
-13.00	-57.00	46.00	90.00	-13.00	-8.00	-14.00
-64.00	-38.00	40.00	149.00	-12.00	8.00	-13.00
-108.00	3.00	25.00	157.00	-7.00	18.00	-6.00
-124.00	30.00	25.00	36.00	-6.00	14.00	-4.00
-112.00	28.00	77.00	-80.00	-7.00	10.00	-9.00
-70.00	26.00	90.00	-87.00	-6.00	7.00	-8.00
-4.00	51.00	57.00	16.00	-17.00	4.00	-3.00
24.00	66.00	23.00	56.00	-24.00	4.00	-4.00
45.00	64.00	-9.00	15.00	-19.00	5.00	-3.00
46.00	54.00	-11.00	-91.00	-19.00	6.00	-1.00
16.00	54.00	38.00	-130.00	-18.00	8.00	5.00
-2.00	32.00	133.00	17.00	-15.00	8.00	7.00
-26.00	0.00	80.00	110.00	-6.00	9.00	5.00
-63.00	-24.00	33.00	171.00	-1.00	14.00	5.00
-91.00	-36.00	36.00	190.00	4.00	12.00	7.00
-123.00	-56.00	67.00	200.00	0.00	18.00	7.00
-122.00	-48.00	105.00	217.00	-11.00	15.00	11.00
-75.00	-28.00	110.00	105.00	-6.00	13.00	14.00
-28.00	-8.00	23.00	-108.00	-3.00	10.00	9.00
16.00	-3.00	-29.00	-152.00	2.00	18.00	-4.00
55.00	2.00	-21.00	-66.00	2.00	23.00	-10.00
94.00	1.00	-65.00	-59.00	3.00	24.00	-11.00
122.00	4.00	-127.00	-57.00	8.00	16.00	-11.00
127.00	-10.00	-142.00	-92.00	17.00	8.00	-9.00
98.00	8.00	-118.00	-71.00	17.00	-6.00	-4.00
89.00	7.00	34.00	-11.00	28.00	-2.00	-2.00
59.00	-1.00	32.00	-44.00	45.00	8.00	-10.00
42.00	-5.00	17.00	-54.00	53.00	8.00	-4.00
34.00	-12.00	34.00	-42.00	53.00	5.00	7.00
22.00	-31.00	-22.00	-61.00	36.00	8.00	8.00
22.00	-35.00	-31.00	-46.00	29.00	7.00	6.00
-10.00	-7.00	27.00	37.00	27.00	9.00	-6.00
-25.00	29.00	48.00	105.00	27.00	11.00	1.00
-20.00	22.00	22.00	149.00	21.00	5.00	7.00
-20.00	30.00	19.00	144.00	16.00	-1.00	2.00
-11.00	50.00	-25.00	9.00	16.00	7.00	3.00
-43.00	60.00	-5.00	-150.00	14.00	18.00	4.00
-86.00	32.00	3.00	-197.00	18.00	25.00	10.00
-97.00	-64.00	-38.00	-174.00	20.00	24.00	10.00
-168.00	-74.00	-27.00	-132.00	19.00	19.00	16.00
-190.00	-40.00	0.00	-52.00	17.00	12.00	5.00
-151.00	18.00	-12.00	8.00	20.00	4.00	-8.00
-54.00	104.00	38.00	154.00	26.00	1.00	-7.00
68.00	182.00	56.00	282.00	19.00	-6.00	-7.00
159.00	206.00	-17.00	333.00	24.00	8.00	0.00
203.00	208.00	-28.00	260.00	25.00	7.00	4.00
228.00	168.00	-26.00	182.00	24.00	4.00	8.00
226.00	144.00	-38.00	106.00	16.00	-5.00	14.00
199.00	133.00	-50.00	81.00	5.00	-5.00	18.00
116.00	110.00	-41.00	56.00	-3.00	2.00	10.00
61.00	78.00	-42.00	11.00	-13.00	3.00	5.00
10.00	41.00	-110.00	-74.00	-8.00	10.00	-1.00
-20.00	10.00	-160.00	-194.00	0.00	22.00	-5.00
-38.00	-22.00	-91.00	-229.00	-2.00	25.00	-4.00
-32.00	-107.00	-35.00	-233.00	-6.00	19.00	-8.00
-34.00	-156.00	-27.00	-188.00	2.00	18.00	-10.00
-14.00	-160.00	-3.00	-125.00	16.00	18.00	-3.00
2.00	-118.00	85.00	-12.00	14.00	5.00	1.00
7.00	-59.00	155.00	128.00	11.00	1.00	5.00
3.00	-10.00	167.00	175.00	11.00	1.00	0.00
-14.00	31.00	157.00	125.00	18.00	1.00	-7.00
-29.00	49.00	90.00	25.00	31.00	10.00	-3.00
-43.00	45.00	41.00	-27.00	39.00	24.00	-1.00
-49.00	24.00	27.00	-17.00	38.00	24.00	0.00
-53.00	1.00	20.00	17.00	28.00	16.00	0.00
-55.00	6.00	-5.00	50.00	20.00	8.00	2.00
-46.00	20.00	11.00	82.00	13.00	11.00	4.00
-45.00	29.00	28.00	90.00	13.00	13.00	5.00
-46.00	5.00	-5.00	49.00	11.00	14.00	8.00
-43.00	-33.00	-16.00	4.00	7.00	14.00	8.00
-32.00	-59.00	-27.00	-94.00	3.00	17.00	10.00
-50.00	-71.00	-12.00	-131.00	4.00	18.00	9.00
-79.00	-65.00	2.00	-122.00	4.00	20.00	8.00
-113.00	-39.00	-13.00	-144.00	0.00	18.00	6.00
-114.00	-22.00	7.00	-151.00	-4.00	10.00	2.00
-80.00	-6.00	24.00	-147.00	-8.00	3.00	1.00
-15.00	-10.00	16.00	-127.00	-2.00	-1.00	-3.00
46.00	-37.00	17.00	-69.00	-6.00	-8.00	-12.00
86.00	-30.00	-12.00	-46.00	-11.00	-12.00	-19.00
73.00	30.00	-50.00	6.00	-5.00	-2.00	-15.00
22.00	81.00	-17.00	141.00	6.00	3.00	-14.00
-19.00	97.00	3.00	196.00	12.00	4.00	-13.00
-50.00	116.00	11.00	202.00	15.00	6.00	-11.00
-49.00	86.00	46.00	163.00	26.00	12.00	-11.00
-16.00	65.00	43.00	88.00	31.00	5.00	-2.00
38.00	57.00	1.00	40.00	37.00	9.00	3.00
93.00	46.00	-31.00	49.00	39.00	11.00	-10.00
83.00	41.00	-129.00	-2.00	40.00	17.00	-21.00
63.00	45.00	-171.00	-34.00	37.00	5.00	-38.00
43.00	45.00	-105.00	-79.00	16.00	12.00	-48.00
28.00	15.00	17.00	-153.00	5.00	27.00	-37.00
3.00	-5.00	85.00	-273.00	2.00	34.00	-11.00
2.00	-20.00	101.00	-240.00	5.00	23.00	15.00
13.00	-25.00	213.00	-54.00	-2.00	-3.00	36.00
0.00	-29.00	279.00	178.00	-12.00	-6.00	58.00
-8.00	-64.00	184.00	391.00	-8.00	2.00	65.00
-9.00	-92.00	57.00	480.00	16.00	9.00	63.00
-21.00	-69.00	-4.00	416.00	28.00	5.00	53.00
-8.00	-70.00	-41.00	221.00	31.00	-4.00	47.00
-9.00	-66.00	-48.00	128.00	21.00	-13.00	39.00
-24.00	-28.00	-38.00	116.00	17.00	-7.00	23.00
-41.00	16.00	-31.00	70.00	15.00	-4.00	5.00
-45.00	75.00	-29.00	31.00	15.00	-4.00	-6.00
-1.00	123.00	-28.00	1.00	9.00	-1.00	-18.00
10.00	154.00	-47.00	-20.00	12.00	14.00	-19.00
-2.00	156.00	-140.00	-73.00	14.00	16.00	-15.00
49.00	127.00	-151.00	-97.00	15.00	20.00	-14.00
83.00	113.00	-123.00	-102.00	28.00	22.00	-11.00
86.00	80.00	-64.00	-124.00	46.00	23.00	-5.00
93.00	43.00	-33.00	-136.00	52.00	14.00	-1.00
88.00	19.00	-5.00	-142.00	44.00	8.00	1.00
55.00	-10.00	88.00	-98.00	35.00	11.00	-3.00
20.00	-82.00	109.00	-124.00	26.00	17.00	-8.00
-7.00	-113.00	-1.00	-128.00	21.00	24.00	-9.00
-10.00	-101.00	-73.00	-98.00	16.00	30.00	-27.00
-13.00	-53.00	-71.00	-111.00	8.00	28.00	-42.00
-22.00	12.00	-90.00	-61.00	7.00	29.00	-39.00
-12.00	73.00	-51.00	17.00	4.00	21.00	-34.00
-20.00	101.00	-10.00	34.00	-4.00	15.00	-26.00
-12.00	115.00	16.00	7.00	-20.00	-2.00	-13.00
22.00	103.00	50.00	-8.00	-29.00	-14.00	-5.00
47.00	82.00	102.00	-58.00	-29.00	-14.00	6.00
50.00	87.00	131.00	-73.00	-18.00	-11.00	15.00
46.00	71.00	112.00	-85.00	-7.00	-6.00	25.00
13.00	37.00	81.00	4.00	9.00	-4.00	32.00
-11.00	-7.00	84.00	70.00	23.00	5.00	17.00
-5.00	-41.00	67.00	180.00	33.00	5.00	13.00
-3.00	-73.00	14.00	216.00	39.00	6.00	3.00
-1.00	-76.00	-36.00	270.00	32.00	9.00	-3.00
-10.00	-106.00	-64.00	255.00	36.00	20.00	-1.00
-28.00	-122.00	-57.00	99.00	38.00	24.00	-3.00
-48.00	-75.00	-16.00	-48.00	33.00	22.00	-6.00
-44.00	-22.00	35.00	-72.00	22.00	20.00	-5.00
-34.00	27.00	73.00	-44.00	13.00	20.00	9.00
-39.00	49.00	57.00	-91.00	8.00	22.00	15.00
-55.00	87.00	1.00	-114.00	5.00	22.00	13.00
-61.00	99.00	-39.00	-124.00	7.00	15.00	2.00
-45.00	80.00	-33.00	-84.00	9.00	15.00	10.00
-24.00	59.00	-30.00	-45.00	10.00	11.00	19.00
-15.00	52.00	-46.00	-11.00	14.00	14.00	8.00
7.00	47.00	-37.00	86.00	11.00	11.00	12.00
12.00	31.00	-41.00	106.00	12.00	9.00	14.00
0.00	20.00	-21.00	117.00	14.00	16.00	15.00
1.00	3.00	22.00	70.00	12.00	16.00	17.00
-3.00	-25.00	23.00	18.00	10.00	11.00	16.00
-20.00	-34.00	26.00	-3.00	9.00	9.00	10.00
-23.00	-34.00	76.00	28.00	10.00	16.00	8.00
-2.00	-52.00	130.00	79.00	8.00	21.00	6.00
14.00	-68.00	121.00	72.00	8.00	16.00	2.00
-5.00	-53.00	92.00	11.00	7.00	10.00	-4.00
-50.00	-29.00	0.00	-92.00	5.00	11.00	-9.00
-71.00	-9.00	-159.00	-181.00	8.00	21.00	-14.00
-85.00	16.00	-281.00	-310.00	11.00	26.00	-12.00
-60.00	33.00	-395.00	-415.00	8.00	25.00	-9.00
-17.00	48.00	-401.00	-354.00	13.00	21.00	-10.00
44.00	49.00	-323.00	-176.00	12.00	10.00	-11.00
89.00	32.00	-72.00	6.00	4.00	-4.00	-13.00
120.00	36.00	177.00	216.00	6.00	-12.00	-13.00
115.00	42.00	372.00	369.00	5.00	-16.00	-15.00
87.00	36.00	433.00	385.00	3.00	-16.00	-15.00
92.00	32.00	349.00	408.00	0.00	-13.00	-13.00
106.00	37.00	315.00	409.00	2.00	-3.00	-9.00
44.00	26.00	280.00	325.00	3.00	0.00	-10.00
-96.00	-2.00	173.00	149.00	9.00	2.00	-7.00
-250.00	-40.00	76.00	65.00	3.00	2.00	-1.00
-352.00	-73.00	7.00	27.00	5.00	9.00	5.00
-304.00	-106.00	-52.00	-17.00	9.00	20.00	15.00
-167.00	-100.00	-68.00	-42.00	11.00	16.00	20.00
-2.00	-71.00	-73.00	-89.00	13.00	12.00	24.00
196.00	-26.00	-101.00	-128.00	13.00	11.00	25.00
257.00	2.00	-57.00	-114.00	11.00	12.00	13.00
217.00	4.00	-33.00	-115.00	9.00	8.00	2.00
159.00	60.00	-59.00	-109.00	8.00	5.00	-1.00
144.00	96.00	-108.00	-77.00	3.00	3.00	-11.00
148.00	98.00	-130.00	-124.00	14.00	11.00	-25.00
121.00	94.00	-158.00	-235.00	22.00	25.00	-39.00
78.00	106.00	-128.00	-263.00	23.00	26.00	-48.00
11.00	103.00	-59.00	-225.00	22.00	25.00	-49.00
-13.00	79.00	-59.00	-194.00	36.00	26.00	-25.00
-20.00	48.00	1.00	-44.00	23.00	10.00	-9.00
-25.00	38.00	101.00	96.00	15.00	-10.00	9.00
32.00	24.00	95.00	211.00	9.00	-11.00	36.00
66.00	11.00	78.00	263.00	5.00	-10.00	39.00
58.00	-7.00	68.00	264.00	8.00	-7.00	41.00
45.00	12.00	35.00	178.00	17.00	3.00	44.00
13.00	34.00	12.00	101.00	10.00	0.00	40.00
-11.00	50.00	-52.00	77.00	3.00	6.00	38.00
-10.00	51.00	-97.00	77.00	2.00	11.00	36.00
2.00	66.00	-56.00	99.00	4.00	12.00	25.00
-5.00	53.00	-1.00	64.00	6.00	12.00	16.00
-54.00	2.00	2.00	-24.00	6.00	10.00	7.00
-78.00	-54.00	-52.00	-84.00	13.00	17.00	4.00
-96.00	-96.00	-62.00	-93.00	0.00	19.00	2.00
-83.00	-90.00	-19.00	-135.00	0.00	19.00	-3.00
-71.00	-103.00	36.00	-136.00	-2.00	11.00	-8.00
-61.00	-117.00	103.00	-70.00	12.00	16.00	-6.00
-46.00	-88.00	128.00	0.00	34.00	19.00	-5.00
-32.00	-3.00	159.00	-4.00	57.00	20.00	0.00
-28.00	85.00	160.00	-9.00	68.00	12.00	3.00
-22.00	135.00	21.00	-26.00	82.00	10.00	6.00
-4.00	153.00	-101.00	-25.00	85.00	14.00	1.00
10.00	158.00	-199.00	-52.00	76.00	9.00	-3.00
13.00	101.00	-196.00	-88.00	74.00	17.00	-6.00
-5.00	6.00	-111.00	-98.00	67.00	18.00	-5.00
-17.00	-44.00	-38.00	-102.00	49.00	18.00	-3.00
-36.00	-48.00	10.00	-94.00	39.00	27.00	1.00
-40.00	-18.00	51.00	-83.00	24.00	24.00	2.00
-40.00	26.00	45.00	-63.00	11.00	18.00	1.00
-28.00	64.00	48.00	80.00	-2.00	20.00	-3.00
-14.00	75.00	24.00	158.00	-22.00	11.00	-2.00
-5.00	69.00	58.00	153.00	-34.00	1.00	-3.00
3.00	86.00	94.00	260.00	-43.00	0.00	-8.00
4.00	78.00	53.00	257.00	-55.00	-5.00	-8.00
3.00	64.00	24.00	256.00	-57.00	-9.00	-14.00
-8.00	33.00	35.00	184.00	-47.00	-9.00	-22.00
-10.00	1.00	3.00	87.00	-30.00	7.00	-26.00
7.00	-10.00	-15.00	106.00	-14.00	16.00	-19.00
48.00	-9.00	-19.00	54.00	-10.00	19.00	-10.00
63.00	-15.00	5.00	25.00	-4.00	16.00	-4.00
59.00	-23.00	54.00	52.00	2.00	12.00	11.00
68.00	-20.00	95.00	70.00	5.00	12.00	16.00
33.00	-16.00	124.00	66.00	17.00	18.00	17.00
-49.00	-13.00	91.00	18.00	32.00	19.00	14.00
-135.00	-11.00	79.00	-27.00	33.00	12.00	12.00
-206.00	-13.00	58.00	-49.00	34.00	8.00	13.00
-194.00	-8.00	-22.00	-113.00	28.00	7.00	3.00
-100.00	0.00	-48.00	-127.00	19.00	5.00	1.00
-40.00	-10.00	-72.00	-136.00	17.00	8.00	0.00
62.00	-23.00	-75.00	-189.00	21.00	17.00	0.00
127.00	-36.00	-16.00	-248.00	9.00	12.00	9.00
112.00	-86.00	-1.00	-224.00	8.00	7.00	15.00
87.00	-122.00	1.00	-110.00	14.00	10.00	17.00
103.00	-162.00	40.00	-31.00	16.00	4.00	20.00
145.00	-151.00	3.00	-13.00	14.00	0.00	20.00
152.00	-69.00	2.00	51.00	10.00	-8.00	4.00
167.00	2.00	1.00	175.00	-16.00	-23.00	-2.00
202.00	87.00	1.00	245.00	-28.00	-25.00	-6.00
180.00	162.00	-38.00	254.00	-18.00	-8.00	-8.00
107.00	161.00	-54.00	147.00	-10.00	4.00	-9.00
16.00	158.00	-111.00	41.00	-1.00	15.00	-10.00
-48.00	165.00	-97.00	-6.00	-1.00	24.00	-19.00
-70.00	138.00	-51.00	-51.00	-9.00	13.00	-16.00
-68.00	92.00	-18.00	-151.00	-18.00	-7.00	-11.00
-15.00	46.00	-12.00	-190.00	-2.00	-6.00	-7.00
18.00	-2.00	19.00	-125.00	13.00	-2.00	-1.00
13.00	-36.00	26.00	-41.00	23.00	-2.00	2.00
-19.00	-30.00	19.00	-14.00	33.00	18.00	3.00
-66.00	-34.00	-9.00	6.00	41.00	27.00	0.00
-75.00	-17.00	-1.00	59.00	48.00	33.00	6.00
-88.00	4.00	31.00	102.00	54.00	39.00	14.00
-65.00	45.00	27.00	118.00	54.00	42.00	23.00
-36.00	74.00	48.00	110.00	50.00	37.00	24.00
-36.00	69.00	77.00	86.00	44.00	22.00	28.00
-31.00	64.00	111.00	69.00	44.00	19.00	30.00
-30.00	39.00	88.00	14.00	20.00	6.00	22.00
-29.00	7.00	64.00	17.00	12.00	10.00	17.00
-17.00	-13.00	2.00	36.00	13.00	24.00	14.00
-8.00	-4.00	1.00	21.00	11.00	25.00	16.00
-39.00	-7.00	50.00	-28.00	10.00	22.00	16.00
-60.00	-33.00	43.00	-38.00	9.00	24.00	9.00
-41.00	-41.00	-55.00	-10.00	9.00	18.00	8.00
-45.00	-21.00	-121.00	8.00	3.00	4.00	8.00
-50.00	6.00	-130.00	19.00	-2.00	-4.00	1.00
-29.00	16.00	-209.00	-55.00	-1.00	2.00	-8.00
-4.00	-7.00	-231.00	-180.00	-2.00	12.00	-26.00
7.00	-52.00	-137.00	-255.00	-16.00	14.00	-32.00
4.00	-81.00	-82.00	-317.00	-31.00	1.00	-32.00
1.00	-98.00	-42.00	-265.00	-45.00	-9.00	-31.00
-18.00	-76.00	0.00	-191.00	-34.00	-11.00	-35.00
-5.00	-63.00	-29.00	-74.00	-22.00	-1.00	-33.00
12.00	-12.00	-51.00	16.00	-17.00	-2.00	-33.00
49.00	56.00	-17.00	154.00	-11.00	1.00	-24.00
69.00	111.00	57.00	227.00	0.00	-1.00	-10.00
71.00	160.00	225.00	292.00	17.00	4.00	3.00
66.00	165.00	203.00	283.00	36.00	-7.00	10.00
42.00	156.00	166.00	296.00	47.00	-6.00	16.00
38.00	124.00	186.00	252.00	67.00	6.00	22.00
31.00	80.00	145.00	54.00	77.00	11.00	28.00
4.00	34.00	104.00	-9.00	74.00	12.00	28.00
-4.00	10.00	55.00	-84.00	72.00	21.00	28.00
-28.00	-36.00	1.00	-150.00	59.00	21.00	24.00
-43.00	-72.00	-57.00	-87.00	22.00	17.00	19.00
-18.00	-75.00	-92.00	-17.00	10.00	22.00	11.00
11.00	-86.00	-58.00	24.00	1.00	21.00	7.00
35.00	-70.00	8.00	86.00	-10.00	21.00	1.00
37.00	-55.00	24.00	131.00	-11.00	20.00	-3.00
29.00	-37.00	19.00	66.00	-3.00	22.00	-6.00
-32.00	26.00	-55.00	-29.00	8.00	22.00	-2.00
-95.00	65.00	-75.00	-152.00	24.00	17.00	1.00
-112.00	95.00	-56.00	-227.00	33.00	13.00	5.00
-100.00	121.00	-14.00	-156.00	35.00	11.00	7.00
-44.00	113.00	40.00	-49.00	32.00	2.00	6.00
19.00	67.00	129.00	59.00	38.00	2.00	6.00
69.00	31.00	145.00	174.00	28.00	-9.00	0.00
95.00	47.00	163.00	459.00	16.00	-8.00	-7.00
96.00	72.00	155.00	512.00	5.00	-1.00	-6.00
95.00	60.00	51.00	285.00	0.00	3.00	-5.00
74.00	37.00	39.00	132.00	-8.00	3.00	-5.00
24.00	39.00	55.00	80.00	-12.00	11.00	-6.00
-34.00	51.00	73.00	42.00	-8.00	9.00	-1.00
-123.00	50.00	25.00	6.00	-5.00	7.00	9.00
-205.00	46.00	-46.00	-27.00	0.00	11.00	15.00
-219.00	39.00	-140.00	-156.00	0.00	16.00	14.00
-157.00	27.00	-241.00	-273.00	0.00	20.00	14.00
-54.00	8.00	-277.00	-313.00	1.00	18.00	11.00
58.00	-24.00	-221.00	-298.00	-6.00	6.00	5.00
171.00	-55.00	-155.00	-247.00	-12.00	-4.00	2.00
226.00	-67.00	-98.00	-195.00	-4.00	-4.00	-4.00
198.00	-64.00	13.00	-79.00	5.00	0.00	-15.00
157.00	-50.00	81.00	32.00	1.00	-8.00	-12.00
91.00	-62.00	127.00	93.00	-8.00	-17.00	-9.00
25.00	-70.00	125.00	125.00	-6.00	-7.00	-6.00
5.00	-92.00	132.00	105.00	-1.00	4.00	-9.00
20.00	-104.00	203.00	96.00	7.00	18.00	-9.00
0.00	-83.00	224.00	115.00	12.00	23.00	-12.00
-38.00	-30.00	180.00	110.00	13.00	27.00	-9.00
-102.00	8.00	89.00	33.00	17.00	26.00	-5.00
-147.00	31.00	61.00	-27.00	17.00	23.00	-6.00
-100.00	31.00	-3.00	-80.00	13.00	15.00	-9.00
-59.00	46.00	-113.00	-71.00	10.00	18.00	-4.00
2.00	51.00	-130.00	-54.00	15.00	21.00	2.00
56.00	26.00	-151.00	-57.00	17.00	23.00	11.00
41.00	25.00	-236.00	-147.00	21.00	25.00	20.00
-1.00	24.00	-276.00	-187.00	26.00	24.00	17.00
-15.00	9.00	-209.00	-118.00	27.00	23.00	15.00
4.00	8.00	-76.00	-6.00	24.00	21.00	12.00
34.00	30.00	-48.00	25.00	27.00	11.00	13.00
68.00	53.00	-58.00	66.00	26.00	6.00	14.00
99.00	72.00	-13.00	141.00	20.00	6.00	6.00
85.00	87.00	44.00	155.00	25.00	8.00	-2.00
54.00	82.00	88.00	103.00	26.00	0.00	1.00
-2.00	57.00	106.00	29.00	29.00	11.00	5.00
-48.00	29.00	77.00	-12.00	21.00	12.00	8.00
-47.00	28.00	64.00	13.00	15.00	8.00	14.00
-21.00	31.00	54.00	27.00	10.00	3.00	33.00
-15.00	32.00	31.00	47.00	9.00	2.00	28.00
-2.00	37.00	31.00	68.00	14.00	10.00	22.00
-5.00	33.00	71.00	89.00	17.00	9.00	17.00
-2.00	27.00	36.00	52.00	18.00	-1.00	11.00
-11.00	15.00	22.00	-7.00	5.00	-6.00	7.00
-18.00	-7.00	22.00	-40.00	10.00	-2.00	3.00
-14.00	-17.00	8.00	-59.00	13.00	6.00	-2.00
-16.00	-33.00	42.00	-50.00	19.00	5.00	-4.00
-9.00	-72.00	28.00	-70.00	22.00	9.00	-8.00
-12.00	-104.00	-114.00	-151.00	22.00	14.00	-21.00
-14.00	-101.00	-146.00	-189.00	23.00	18.00	-27.00
-50.00	-60.00	-97.00	-176.00	25.00	23.00	-28.00
-71.00	-34.00	-48.00	-148.00	24.00	30.00	-22.00
-61.00	-33.00	6.00	-87.00	18.00	30.00	-13.00
-22.00	-26.00	41.00	-26.00	14.00	20.00	-5.00
7.00	-30.00	44.00	50.00	10.00	10.00	0.00
42.00	-12.00	32.00	112.00	5.00	10.00	6.00
54.00	20.00	4.00	96.00	0.00	7.00	11.00
44.00	77.00	-41.00	0.00	5.00	11.00	12.00
9.00	124.00	-12.00	-40.00	11.00	10.00	11.00
-2.00	143.00	-3.00	-31.00	16.00	9.00	15.00
-2.00	137.00	37.00	89.00	16.00	11.00	14.00
-19.00	139.00	104.00	263.00	9.00	10.00	13.00
-28.00	125.00	109.00	359.00	-5.00	-5.00	9.00
-50.00	91.00	128.00	320.00	-12.00	-10.00	6.00
-50.00	69.00	137.00	307.00	-16.00	-14.00	2.00
-34.00	74.00	74.00	328.00	-12.00	-9.00	-1.00
-22.00	48.00	84.00	205.00	-6.00	-5.00	-11.00
8.00	7.00	75.00	84.00	-4.00	6.00	-12.00
16.00	-38.00	48.00	17.00	4.00	11.00	-11.00
30.00	-37.00	-5.00	2.00	8.00	14.00	-11.00
47.00	-36.00	-10.00	-7.00	17.00	12.00	-10.00
34.00	-71.00	-5.00	-60.00	30.00	9.00	-8.00
23.00	-115.00	-13.00	-96.00	40.00	6.00	-8.00
24.00	-108.00	-31.00	-134.00	44.00	2.00	-3.00
6.00	-54.00	-33.00	-138.00	45.00	4.00	-2.00
10.00	-4.00	-104.00	-178.00	48.00	12.00	-3.00
17.00	35.00	-160.00	-161.00	42.00	17.00	0.00
29.00	98.00	-154.00	-163.00	31.00	18.00	7.00
56.00	110.00	-56.00	-224.00	27.00	13.00	18.00
38.00	110.00	78.00	-134.00	27.00	21.00	26.00
25.00	102.00	118.00	-48.00	27.00	23.00	25.00
29.00	87.00	157.00	49.00	23.00	22.00	22.00
24.00	90.00	142.00	86.00	23.00	17.00	21.00
19.00	79.00	117.00	112.00	12.00	11.00	22.00
12.00	37.00	56.00	116.00	1.00	4.00	15.00
34.00	-24.00	11.00	123.00	10.00	13.00	15.00
27.00	-62.00	4.00	97.00	17.00	20.00	14.00
45.00	-60.00	6.00	42.00	15.00	21.00	9.00
-14.00	-42.00	0.00	52.00	8.00	17.00	4.00
-116.00	-13.00	-7.00	89.00	2.00	12.00	3.00
-190.00	7.00	-11.00	53.00	-2.00	12.00	-9.00
-244.00	2.00	-21.00	11.00	0.00	16.00	-13.00
-213.00	-4.00	-59.00	-52.00	0.00	20.00	-10.00
-159.00	17.00	-67.00	-39.00	-7.00	22.00	-8.00
-86.00	20.00	-146.00	-53.00	-27.00	15.00	-10.00
14.00	-8.00	-164.00	-145.00	-35.00	-1.00	-14.00
97.00	-44.00	-131.00	-166.00	-42.00	-21.00	-14.00
202.00	-33.00	-61.00	-116.00	-34.00	-15.00	-7.00
236.00	0.00	-57.00	-34.00	-21.00	-14.00	-12.00
230.00	39.00	-12.00	64.00	-7.00	-8.00	-14.00
180.00	59.00	23.00	110.00	2.00	-13.00	-14.00
111.00	70.00	44.00	131.00	15.00	-12.00	-21.00
52.00	68.00	1.00	86.00	28.00	-4.00	-22.00
5.00	57.00	-77.00	-43.00	42.00	11.00	-12.00
-8.00	15.00	-144.00	-93.00	43.00	18.00	-2.00
-20.00	-54.00	-118.00	-114.00	44.00	25.00	7.00
-8.00	-141.00	-40.00	-116.00	34.00	17.00	10.00
11.00	-157.00	95.00	-70.00	33.00	10.00	16.00
13.00	-131.00	200.00	-21.00	32.00	11.00	14.00
9.00	-66.00	236.00	80.00	34.00	16.00	19.00
15.00	21.00	222.00	161.00	41.00	26.00	24.00
18.00	81.00	121.00	164.00	39.00	21.00	24.00
-10.00	115.00	41.00	149.00	37.00	18.00	34.00
-53.00	118.00	-56.00	62.00	45.00	26.00	35.00
-100.00	114.00	-75.00	-114.00	58.00	35.00	29.00
-147.00	84.00	40.00	-242.00	58.00	40.00	24.00
-187.00	24.00	86.00	-241.00	45.00	45.00	16.00
-200.00	25.00	43.00	-216.00	23.00	35.00	15.00
-158.00	41.00	-13.00	-158.00	7.00	18.00	11.00
-88.00	44.00	-2.00	-8.00	-2.00	4.00	10.00
3.00	64.00	-17.00	174.00	-3.00	0.00	11.00
92.00	82.00	-10.00	348.00	0.00	1.00	13.00
130.00	83.00	-34.00	365.00	-23.00	-12.00	11.00
169.00	76.00	-135.00	217.00	-46.00	-26.00	14.00
186.00	48.00	-181.00	97.00	-44.00	-29.00	11.00
123.00	23.00	-156.00	56.00	-23.00	-10.00	1.00
92.00	11.00	-100.00	64.00	-9.00	-2.00	-3.00
56.00	0.00	-36.00	58.00	-5.00	-4.00	-4.00
6.00	-24.00	63.00	18.00	0.00	-5.00	-8.00
-32.00	-24.00	190.00	37.00	12.00	3.00	-18.00
-39.00	-28.00	254.00	39.00	12.00	-6.00	-20.00
-50.00	-42.00	210.00	29.00	8.00	3.00	-18.00
-58.00	-46.00	105.00	13.00	17.00	20.00	-16.00
-39.00	-46.00	-26.00	-95.00	23.00	28.00	-15.00
-21.00	-39.00	-141.00	-161.00	28.00	29.00	-20.00
-6.00	-45.00	-220.00	-230.00	37.00	42.00	-20.00
9.00	-89.00	-269.00	-304.00	38.00	48.00	-20.00
47.00	-155.00	-243.00	-268.00	40.00	43.00	-28.00
42.00	-190.00	-157.00	-158.00	42.00	34.00	-30.00
37.00	-149.00	-42.00	-17.00	46.00	20.00	-28.00
33.00	-65.00	112.00	123.00	43.00	-1.00	-28.00
28.00	22.00	210.00	218.00	33.00	-14.00	-23.00
23.00	79.00	255.00	300.00	35.00	-12.00	-6.00
21.00	122.00	249.00	317.00	28.00	-16.00	6.00
13.00	133.00	216.00	218.00	17.00	-8.00	8.00
3.00	108.00	139.00	121.00	20.00	12.00	12.00
-13.00	104.00	77.00	44.00	19.00	14.00	18.00
-8.00	93.00	51.00	24.00	11.00	12.00	28.00
18.00	67.00	37.00	-17.00	11.00	17.00	28.00
29.00	40.00	25.00	-43.00	6.00	14.00	25.00
-5.00	35.00	19.00	-39.00	1.00	11.00	20.00
-45.00	30.00	17.00	-25.00	-5.00	11.00	15.00
-71.00	6.00	9.00	0.00	-6.00	14.00	10.00
-136.00	-18.00	-25.00	-9.00	-6.00	13.00	5.00
-202.00	-39.00	-79.00	-42.00	-8.00	16.00	6.00
-199.00	-53.00	-100.00	-123.00	-1.00	26.00	4.00
-163.00	-16.00	-142.00	-213.00	4.00	34.00	3.00
-79.00	15.00	-207.00	-261.00	5.00	35.00	2.00
-43.00	58.00	-195.00	-244.00	3.00	28.00	4.00
22.00	75.00	-129.00	-185.00	1.00	12.00	2.00
91.00	95.00	13.00	-35.00	3.00	-4.00	2.00
139.00	110.00	157.00	83.00	-3.00	-22.00	-5.00
170.00	115.00	214.00	171.00	-15.00	-32.00	-8.00
189.00	108.00	163.00	246.00	-21.00	-34.00	-14.00
169.00	117.00	118.00	291.00	-20.00	-22.00	-18.00
130.00	81.00	-40.00	185.00	-10.00	-14.00	-12.00
88.00	53.00	-92.00	82.00	-8.00	-11.00	-23.00
25.00	44.00	-66.00	8.00	-1.00	-2.00	-15.00
-14.00	12.00	-72.00	-35.00	0.00	0.00	-15.00
-16.00	-23.00	-74.00	-52.00	0.00	-1.00	-26.00
-13.00	-27.00	-24.00	-61.00	-4.00	-1.00	-21.00
-14.00	-23.00	-39.00	-75.00	-16.00	2.00	-15.00
-19.00	-35.00	-73.00	-97.00	-10.00	14.00	-5.00
-24.00	-31.00	-42.00	-136.00	5.00	24.00	4.00
-33.00	-3.00	-2.00	-214.00	15.00	32.00	7.00
-41.00	33.00	-22.00	-296.00	21.00	34.00	12.00
-42.00	48.00	-20.00	-293.00	34.00	38.00	19.00
-39.00	19.00	-21.00	-205.00	38.00	31.00	25.00
-43.00	-3.00	49.00	-63.00	45.00	12.00	27.00
-44.00	-25.00	79.00	43.00	57.00	16.00	35.00
-36.00	-73.00	45.00	227.00	68.00	18.00	30.00
-26.00	-92.00	-27.00	271.00	69.00	22.00	26.00
-21.00	-92.00	-30.00	203.00	61.00	24.00	23.00
-32.00	-74.00	-41.00	103.00	53.00	28.00	19.00
-42.00	-57.00	-14.00	85.00	39.00	22.00	13.00
-62.00	-9.00	35.00	149.00	24.00	20.00	11.00
-68.00	81.00	41.00	171.00	11.00	18.00	10.00
-90.00	152.00	33.00	107.00	3.00	15.00	6.00
-101.00	189.00	10.00	103.00	-1.00	15.00	3.00
-108.00	170.00	45.00	181.00	4.00	17.00	4.00
-64.00	139.00	80.00	176.00	8.00	13.00	3.00
5.00	95.00	95.00	168.00	6.00	6.00	0.00
69.00	56.00	112.00	202.00	5.00	6.00	-2.00
139.00	28.00	76.00	217.00	0.00	8.00	-3.00
144.00	5.00	16.00	153.00	-4.00	0.00	-8.00
99.00	-23.00	31.00	107.00	-4.00	-5.00	-12.00
69.00	-23.00	-33.00	23.00	3.00	-2.00	-12.00
70.00	-16.00	-71.00	-60.00	7.00	6.00	-12.00
52.00	-28.00	-165.00	-166.00	6.00	11.00	-11.00
16.00	-33.00	-227.00	-286.00	4.00	15.00	-7.00
-27.00	-40.00	-186.00	-305.00	-2.00	15.00	-3.00
-38.00	-57.00	-85.00	-286.00	-12.00	10.00	-1.00
-29.00	-94.00	-16.00	-249.00	-7.00	11.00	0.00
3.00	-134.00	48.00	-179.00	2.00	4.00	0.00
47.00	-146.00	193.00	-27.00	7.00	-5.00	-1.00
74.00	-113.00	230.00	86.00	11.00	-4.00	-2.00
73.00	-52.00	176.00	127.00	11.00	0.00	-2.00
62.00	-16.00	118.00	62.00	11.00	5.00	-9.00
51.00	3.00	71.00	-44.00	9.00	6.00	-22.00
18.00	15.00	37.00	-113.00	14.00	9.00	-23.00
2.00	13.00	17.00	-65.00	15.00	5.00	-16.00
-11.00	-6.00	39.00	83.00	10.00	1.00	-15.00
-36.00	27.00	29.00	247.00	12.00	1.00	-9.00
-50.00	97.00	-21.00	284.00	13.00	10.00	-1.00
-44.00	153.00	-54.00	250.00	12.00	12.00	6.00
-23.00	162.00	-66.00	168.00	9.00	2.00	12.00
-11.00	152.00	-59.00	27.00	12.00	7.00	12.00
3.00	119.00	-82.00	-98.00	19.00	20.00	1.00
3.00	80.00	-96.00	-110.00	25.00	23.00	-3.00
-18.00	34.00	-59.00	-93.00	29.00	25.00	-5.00
-39.00	-15.00	-1.00	-117.00	35.00	25.00	-1.00
-76.00	-32.00	2.00	-74.00	38.00	31.00	13.00
-62.00	-33.00	18.00	-23.00	29.00	27.00	28.00
-56.00	-17.00	92.00	15.00	22.00	22.00	41.00
-46.00	9.00	175.00	62.00	18.00	20.00	34.00
7.00	12.00	170.00	80.00	10.00	6.00	26.00
48.00	23.00	92.00	-4.00	8.00	2.00	27.00
87.00	33.00	54.00	-52.00	3.00	4.00	31.00
93.00	27.00	35.00	-8.00	-4.00	-5.00	22.00
86.00	8.00	-63.00	-47.00	-4.00	-2.00	10.00
42.00	-14.00	-150.00	-49.00	-3.00	7.00	-2.00
-26.00	-12.00	-173.00	-31.00	1.00	13.00	-2.00
-30.00	-22.00	-120.00	-8.00	0.00	6.00	-7.00
11.00	-23.00	-32.00	31.00	-3.00	2.00	-12.00
26.00	-45.00	-19.00	20.00	-13.00	3.00	-12.00
66.00	-66.00	2.00	4.00	-25.00	-4.00	-11.00
123.00	-46.00	-34.00	-26.00	-10.00	6.00	-8.00
121.00	-30.00	-138.00	-146.00	0.00	7.00	-8.00
65.00	-39.00	-124.00	-162.00	-7.00	1.00	-9.00
8.00	-51.00	-44.00	-109.00	-12.00	6.00	-3.00
-22.00	-35.00	33.00	-63.00	-1.00	19.00	1.00
-45.00	-42.00	151.00	-14.00	20.00	23.00	5.00
-72.00	-41.00	230.00	0.00	36.00	11.00	1.00
-82.00	-47.00	234.00	-104.00	40.00	3.00	1.00
-65.00	-34.00	204.00	-94.00	49.00	2.00	-2.00
-3.00	17.00	112.00	-46.00	61.00	9.00	-7.00
55.00	89.00	-7.00	-29.00	61.00	11.00	-21.00
100.00	128.00	-133.00	52.00	49.00	6.00	-36.00
105.00	106.00	-178.00	123.00	44.00	-2.00	-38.00
89.00	44.00	-144.00	243.00	46.00	-7.00	-35.00
66.00	23.00	-76.00	353.00	52.00	-2.00	-26.00
30.00	37.00	-54.00	321.00	54.00	0.00	-13.00
25.00	86.00	-28.00	247.00	40.00	5.00	-9.00
7.00	111.00	-46.00	183.00	29.00	9.00	1.00
-27.00	88.00	-70.00	139.00	20.00	7.00	7.00
-56.00	10.00	-164.00	-55.00	13.00	12.00	11.00
-78.00	-40.00	-240.00	-315.00	7.00	28.00	18.00
-65.00	8.00	-162.00	-405.00	9.00	33.00	19.00
-49.00	95.00	-58.00	-348.00	5.00	29.00	12.00
-18.00	166.00	68.00	-251.00	7.00	31.00	9.00
15.00	198.00	195.00	-62.00	18.00	27.00	19.00
-5.00	192.00	374.00	205.00	15.00	11.00	36.00
-60.00	174.00	425.00	461.00	4.00	8.00	40.00
-104.00	118.00	292.00	580.00	-8.00	12.00	41.00
-99.00	62.00	142.00	548.00	-24.00	-3.00	30.00
-72.00	23.00	43.00	402.00	-46.00	-9.00	22.00
-40.00	-5.00	-41.00	215.00	-43.00	4.00	15.00
-12.00	-21.00	-41.00	72.00	-24.00	17.00	3.00
11.00	-36.00	-9.00	-42.00	-17.00	21.00	-22.00
11.00	-46.00	7.00	-115.00	-12.00	22.00	-33.00
2.00	-60.00	12.00	-148.00	0.00	21.00	-35.00
-6.00	-65.00	13.00	-188.00	1.00	18.00	-24.00
-17.00	-62.00	25.00	-173.00	20.00	20.00	-14.00
-21.00	-60.00	-28.00	-150.00	44.00	22.00	-8.00
-16.00	-80.00	-124.00	-173.00	38.00	12.00	-3.00
-1.00	-86.00	-172.00	-190.00	31.00	6.00	5.00
11.00	-85.00	-155.00	-191.00	34.00	-3.00	5.00
20.00	-69.00	-144.00	-147.00	31.00	-6.00	13.00
28.00	-50.00	-100.00	-79.00	15.00	-2.00	22.00
41.00	-29.00	-27.00	-68.00	5.00	-1.00	26.00
12.00	-13.00	64.00	-27.00	-3.00	1.00	25.00
-38.00	-27.00	117.00	37.00	-3.00	7.00	20.00
-72.00	-33.00	92.00	59.00	-11.00	5.00	9.00
-65.00	-32.00	27.00	-12.00	-14.00	5.00	2.00
-48.00	-48.00	4.00	-41.00	0.00	14.00	4.00
-38.00	-58.00	-6.00	-103.00	1.00	13.00	-5.00
-1.00	-57.00	-18.00	-126.00	13.00	22.00	-3.00
21.00	-44.00	-24.00	-120.00	17.00	27.00	-5.00
2.00	2.00	-13.00	-88.00	13.00	29.00	-9.00
6.00	59.00	-34.00	-42.00	14.00	20.00	-15.00
25.00	105.00	20.00	37.00	14.00	6.00	-15.00
-7.00	140.00	96.00	125.00	12.00	2.00	-21.00
-43.00	146.00	105.00	167.00	19.00	0.00	-28.00
-81.00	142.00	32.00	133.00	20.00	-7.00	-48.00
-103.00	131.00	-55.00	111.00	6.00	-12.00	-55.00
-68.00	108.00	-91.00	63.00	4.00	-4.00	-43.00
-2.00	102.00	-78.00	10.00	15.00	10.00	-22.00
91.00	92.00	-99.00	-28.00	24.00	24.00	0.00
168.00	62.00	-148.00	-80.00	30.00	24.00	13.00
192.00	34.00	-122.00	-99.00	29.00	23.00	28.00
141.00	11.00	-73.00	-103.00	28.00	20.00	43.00
79.00	-12.00	-68.00	-153.00	30.00	18.00	56.00
27.00	-21.00	-5.00	-99.00	29.00	18.00	42.00
13.00	-22.00	124.00	5.00	26.00	16.00	26.00
18.00	-28.00	193.00	42.00	25.00	16.00	18.00
22.00	-38.00	190.00	72.00	21.00	16.00	13.00
-2.00	-50.00	194.00	124.00	14.00	13.00	12.00
-38.00	-67.00	166.00	206.00	-2.00	-3.00	11.00
-91.00	-56.00	93.00	296.00	-8.00	-10.00	8.00
-128.00	-47.00	50.00	256.00	-3.00	1.00	0.00
-141.00	-42.00	-50.00	108.00	3.00	11.00	2.00
-105.00	-31.00	-132.00	-30.00	6.00	15.00	-3.00
-16.00	-7.00	-158.00	-87.00	5.00	13.00	-1.00
77.00	24.00	-172.00	-83.00	2.00	10.00	-1.00
117.00	56.00	-106.00	-62.00	-3.00	0.00	-8.00
151.00	31.00	-88.00	-36.00	-9.00	-9.00	-14.00
142.00	6.00	-33.00	34.00	-3.00	-7.00	-13.00
105.00	-32.00	39.00	90.00	-6.00	-8.00	-8.00
69.00	-98.00	69.00	87.00	-19.00	-5.00	-12.00
37.00	-109.00	52.00	34.00	-19.00	-5.00	-16.00
29.00	-83.00	47.00	-14.00	-1.00	0.00	-15.00
26.00	-21.00	-4.00	-54.00	15.00	9.00	-9.00
10.00	47.00	-85.00	-162.00	23.00	14.00	-11.00
6.00	112.00	-71.00	-230.00	30.00	17.00	-8.00
3.00	154.00	-35.00	-246.00	35.00	18.00	-11.00
-19.00	162.00	-14.00	-267.00	42.00	25.00	-12.00
-40.00	149.00	-99.00	-218.00	52.00	22.00	-11.00
-52.00	89.00	-90.00	-92.00	61.00	16.00	-7.00
-59.00	51.00	-46.00	15.00	57.00	13.00	-4.00
-63.00	24.00	-23.00	118.00	43.00	8.00	-1.00
-67.00	-8.00	32.00	195.00	35.00	0.00	4.00
-56.00	-2.00	157.00	284.00	21.00	-12.00	-1.00
-18.00	42.00	323.00	380.00	19.00	-9.00	-5.00
-15.00	89.00	421.00	397.00	20.00	6.00	-5.00
-39.00	113.00	390.00	399.00	14.00	10.00	-5.00
-60.00	97.00	286.00	283.00	8.00	15.00	-4.00
-99.00	77.00	169.00	187.00	9.00	20.00	0.00
-95.00	54.00	57.00	103.00	13.00	25.00	4.00
-49.00	31.00	-69.00	-3.00	15.00	21.00	4.00
0.00	10.00	-60.00	-48.00	0.00	13.00	4.00
54.00	-8.00	-78.00	-64.00	-6.00	-3.00	2.00
84.00	-18.00	-69.00	-90.00	4.00	0.00	6.00
66.00	-33.00	-107.00	-89.00	14.00	13.00	-3.00
60.00	-55.00	-120.00	-64.00	12.00	19.00	-11.00
58.00	-63.00	-126.00	-84.00	9.00	14.00	-10.00
55.00	-67.00	-172.00	-113.00	1.00	14.00	-10.00
74.00	-79.00	-194.00	-132.00	0.00	20.00	-5.00
59.00	-75.00	-136.00	-145.00	1.00	21.00	7.00
12.00	-70.00	-100.00	-197.00	-6.00	14.00	18.00
-69.00	-115.00	-94.00	-282.00	-1.00	10.00	32.00
-129.00	-224.00	-91.00	-390.00	-7.00	2.00	30.00
-138.00	-262.00	-21.00	-354.00	-8.00	8.00	32.00
-98.00	-198.00	-11.00	-268.00	0.00	11.00	27.00
-38.00	-70.00	-4.00	-130.00	12.00	22.00	17.00
45.00	62.00	2.00	-22.00	27.00	31.00	13.00
85.00	177.00	-4.00	109.00	35.00	24.00	9.00
97.00	259.00	69.00	271.00	36.00	-1.00	1.00
96.00	256.00	115.00	454.00	32.00	-24.00	-9.00
79.00	207.00	172.00	478.00	28.00	-29.00	-6.00
57.00	213.00	219.00	384.00	30.00	-15.00	-4.00
55.00	197.00	182.00	231.00	26.00	-8.00	-1.00
48.00	178.00	97.00	160.00	27.00	8.00	9.00
30.00	135.00	5.00	31.00	24.00	11.00	8.00
-6.00	84.00	-79.00	-27.00	22.00	14.00	7.00
-72.00	53.00	-120.00	4.00	19.00	23.00	-2.00
-136.00	31.00	-59.00	80.00	13.00	26.00	-4.00
-148.00	17.00	34.00	152.00	4.00	19.00	-5.00
-148.00	8.00	29.00	132.00	0.00	18.00	1.00
-122.00	-9.00	6.00	56.00	-17.00	23.00	1.00
-47.00	-46.00	-22.00	-36.00	-22.00	20.00	4.00
31.00	-71.00	15.00	-95.00	-15.00	18.00	7.00
58.00	-79.00	10.00	-84.00	-12.00	10.00	15.00
94.00	-68.00	-28.00	-65.00	0.00	10.00	25.00
64.00	-62.00	-62.00	-66.00	12.00	14.00	28.00
39.00	-42.00	-77.00	-72.00	15.00	10.00	24.00
27.00	-46.00	-133.00	-74.00	27.00	10.00	20.00
19.00	-85.00	-156.00	-108.00	38.00	15.00	12.00
-3.00	-113.00	-106.00	-164.00	48.00	19.00	2.00
-3.00	-142.00	-140.00	-252.00	52.00	23.00	-4.00
-34.00	-110.00	-126.00	-278.00	45.00	25.00	-9.00
-70.00	-31.00	-36.00	-262.00	37.00	24.00	-10.00
-89.00	22.00	-5.00	-305.00	30.00	23.00	-14.00
-62.00	38.00	75.00	-254.00	20.00	19.00	-14.00
-5.00	69.00	143.00	-166.00	13.00	13.00	-12.00
68.00	71.00	215.00	-42.00	7.00	8.00	-13.00
149.00	94.00	217.00	132.00	-15.00	10.00	-13.00
165.00	83.00	141.00	257.00	-18.00	9.00	-12.00
149.00	88.00	35.00	300.00	-22.00	15.00	-9.00
156.00	90.00	-11.00	344.00	-28.00	2.00	-14.00
134.00	95.00	41.00	343.00	-25.00	-10.00	-12.00
90.00	109.00	103.00	274.00	-16.00	-19.00	-8.00
50.00	106.00	88.00	152.00	-14.00	-34.00	-18.00
3.00	64.00	8.00	92.00	-11.00	-27.00	-15.00
-29.00	21.00	-73.00	36.00	8.00	-12.00	-22.00
-42.00	-26.00	-146.00	-22.00	16.00	-4.00	-25.00
-45.00	-55.00	-169.00	-79.00	24.00	-2.00	-27.00
-52.00	-53.00	-115.00	-90.00	39.00	3.00	-29.00
-49.00	-38.00	-1.00	-49.00	50.00	9.00	-21.00
-63.00	-39.00	76.00	-6.00	59.00	14.00	-4.00
-81.00	-33.00	124.00	-8.00	68.00	21.00	2.00
-104.00	-5.00	137.00	14.00	76.00	24.00	11.00
-117.00	4.00	77.00	64.00	69.00	29.00	19.00
-98.00	3.00	50.00	101.00	50.00	30.00	18.00
-61.00	-4.00	23.00	89.00	19.00	27.00	26.00
3.00	3.00	-88.00	12.00	-3.00	23.00	31.00
57.00	15.00	-209.00	-125.00	-8.00	28.00	33.00
68.00	9.00	-304.00	-215.00	-8.00	28.00	37.00
25.00	-5.00	-269.00	-281.00	-6.00	27.00	39.00
-39.00	-1.00	-121.00	-276.00	-1.00	28.00	36.00
-41.00	-2.00	3.00	-185.00	2.00	20.00	41.00
-18.00	-10.00	182.00	-59.00	0.00	3.00	31.00
-19.00	8.00	354.00	66.00	-2.00	-11.00	18.00
-25.00	34.00	387.00	272.00	-7.00	-21.00	10.00
-44.00	20.00	298.00	378.00	12.00	4.00	3.00
-35.00	0.00	219.00	385.00	24.00	15.00	-1.00
1.00	-8.00	150.00	267.00	31.00	15.00	-5.00
43.00	-16.00	0.00	131.00	31.00	16.00	-8.00
82.00	-29.00	-48.00	82.00	34.00	21.00	-7.00
112.00	-16.00	-75.00	1.00	24.00	12.00	-13.00
62.00	30.00	-39.00	-15.00	5.00	2.00	-21.00
-17.00	71.00	-13.00	5.00	0.00	2.00	-18.00
-61.00	100.00	-54.00	-37.00	6.00	3.00	-12.00
-65.00	117.00	-63.00	-72.00	9.00	2.00	-8.00
-49.00	95.00	-63.00	-91.00	4.00	4.00	-7.00
-7.00	39.00	-66.00	-83.00	2.00	5.00	-9.00
26.00	-2.00	-125.00	-83.00	2.00	15.00	-8.00
54.00	-38.00	-178.00	-148.00	2.00	19.00	-8.00
48.00	-57.00	-247.00	-236.00	3.00	26.00	-5.00
32.00	-68.00	-233.00	-233.00	4.00	26.00	-1.00
35.00	-52.00	-169.00	-168.00	5.00	25.00	1.00
33.00	-24.00	-110.00	-131.00	8.00	26.00	5.00
35.00	9.00	-5.00	-45.00	5.00	14.00	-4.00
24.00	59.00	105.00	32.00	0.00	-1.00	-12.00
15.00	88.00	169.00	69.00	-4.00	-6.00	-12.00
-12.00	123.00	124.00	-20.00	-4.00	-6.00	-11.00
-26.00	144.00	41.00	-144.00	0.00	-1.00	-16.00
-30.00	96.00	-33.00	-210.00	8.00	7.00	-27.00
-20.00	46.00	-83.00	-154.00	16.00	10.00	-35.00
-6.00	21.00	-95.00	-19.00	17.00	5.00	-30.00
1.00	10.00	-50.00	166.00	17.00	-5.00	-20.00
5.00	15.00	111.00	408.00	21.00	-2.00	0.00
9.00	14.00	241.00	604.00	10.00	-11.00	10.00
50.00	-15.00	252.00	582.00	5.00	-14.00	22.00
43.00	-50.00	213.00	452.00	16.00	6.00	27.00
-18.00	-51.00	210.00	297.00	22.00	17.00	37.00
-72.00	-57.00	150.00	61.00	20.00	21.00	42.00
-115.00	-27.00	100.00	-75.00	20.00	19.00	43.00
-116.00	16.00	34.00	-86.00	20.00	18.00	41.00
-106.00	44.00	-10.00	-83.00	17.00	13.00	37.00
-56.00	61.00	-95.00	-44.00	10.00	11.00	36.00
23.00	61.00	-113.00	6.00	15.00	21.00	39.00
40.00	68.00	-108.00	23.00	11.00	12.00	26.00
58.00	61.00	-85.00	-16.00	6.00	-2.00	14.00
84.00	67.00	-55.00	-69.00	9.00	-2.00	7.00
94.00	57.00	-44.00	-107.00	10.00	8.00	-10.00
51.00	64.00	-6.00	-104.00	7.00	9.00	-30.00
17.00	35.00	29.00	-111.00	4.00	11.00	-33.00
17.00	9.00	-24.00	-110.00	2.00	11.00	-29.00
14.00	-23.00	-78.00	-120.00	1.00	3.00	-24.00
28.00	-43.00	-47.00	-126.00	-4.00	0.00	-22.00
38.00	-63.00	-9.00	-148.00	-3.00	5.00	-14.00
56.00	-92.00	-80.00	-167.00	4.00	18.00	-4.00
39.00	-90.00	-154.00	-192.00	7.00	18.00	13.00
-24.00	-62.00	-122.00	-177.00	4.00	15.00	9.00
-27.00	-55.00	-113.00	-215.00	3.00	16.00	1.00
-7.00	-63.00	-116.00	-222.00	7.00	24.00	-3.00
-14.00	-51.00	-20.00	-161.00	-10.00	21.00	-1.00
-12.00	-44.00	110.00	-48.00	-13.00	11.00	-1.00
-23.00	6.00	166.00	46.00	-7.00	17.00	9.00
-26.00	38.00	173.00	63.00	-7.00	13.00	12.00
-11.00	31.00	168.00	104.00	-8.00	-5.00	7.00
-21.00	65.00	101.00	149.00	-8.00	-20.00	3.00
3.00	75.00	14.00	232.00	11.00	-7.00	2.00
57.00	53.00	-108.00	258.00	40.00	8.00	3.00
78.00	22.00	-120.00	232.00	57.00	16.00	-4.00
66.00	39.00	-68.00	162.00	76.00	21.00	-12.00
49.00	61.00	-11.00	83.00	90.00	20.00	-8.00
48.00	66.00	20.00	79.00	86.00	9.00	-6.00
54.00	48.00	52.00	37.00	76.00	8.00	-2.00
56.00	54.00	102.00	51.00	63.00	14.00	5.00
20.00	91.00	115.00	112.00	42.00	24.00	9.00
-27.00	88.00	65.00	131.00	38.00	29.00	9.00
-86.00	40.00	10.00	83.00	36.00	24.00	10.00
-117.00	33.00	-24.00	49.00	32.00	16.00	8.00
-101.00	2.00	12.00	45.00	27.00	9.00	9.00
-55.00	-33.00	33.00	47.00	27.00	14.00	7.00
-21.00	-50.00	-10.00	23.00	17.00	10.00	-6.00
-30.00	5.00	40.00	10.00	11.00	11.00	-3.00
-66.00	66.00	63.00	-28.00	2.00	6.00	-6.00
-83.00	110.00	33.00	-51.00	-4.00	-3.00	-14.00
-58.00	108.00	-20.00	-72.00	-9.00	9.00	-13.00
-51.00	65.00	-61.00	-146.00	-18.00	11.00	-6.00
-22.00	57.00	-19.00	-141.00	-28.00	7.00	-1.00
9.00	32.00	24.00	-73.00	-23.00	0.00	-3.00
29.00	-25.00	40.00	-8.00	-16.00	3.00	-3.00
54.00	-46.00	25.00	6.00	-11.00	6.00	-1.00
79.00	-45.00	34.00	55.00	-9.00	7.00	3.00
69.00	-51.00	21.00	99.00	-3.00	9.00	9.00
76.00	-53.00	-5.00	162.00	0.00	8.00	12.00
54.00	-49.00	7.00	88.00	3.00	7.00	12.00
6.00	-26.00	-50.00	-86.00	8.00	13.00	6.00
-33.00	-40.00	-123.00	-205.00	18.00	22.00	8.00
-69.00	-62.00	-132.00	-251.00	24.00	25.00	1.00
-72.00	-59.00	-129.00	-250.00	26.00	28.00	-10.00
-57.00	-35.00	-103.00	-220.00	21.00	30.00	-6.00
-43.00	9.00	-46.00	-164.00	12.00	27.00	-4.00
-14.00	32.00	3.00	-154.00	10.00	19.00	4.00
7.00	56.00	104.00	-28.00	0.00	8.00	13.00
7.00	44.00	96.00	39.00	0.00	1.00	19.00
11.00	41.00	67.00	110.00	2.00	3.00	17.00
25.00	49.00	82.00	191.00	0.00	-4.00	25.00
18.00	53.00	96.00	277.00	-7.00	-15.00	26.00
-11.00	54.00	89.00	321.00	-10.00	-19.00	23.00
-2.00	43.00	50.00	300.00	-7.00	-14.00	17.00
7.00	39.00	13.00	268.00	-2.00	-3.00	14.00
19.00	37.00	5.00	164.00	2.00	5.00	10.00
32.00	45.00	-34.00	32.00	13.00	14.00	7.00
32.00	63.00	-51.00	-31.00	14.00	8.00	4.00
60.00	53.00	-28.00	-32.00	11.00	1.00	-4.00
57.00	36.00	-33.00	-6.00	14.00	5.00	0.00
14.00	16.00	-13.00	28.00	8.00	7.00	0.00
-43.00	11.00	-20.00	58.00	3.00	8.00	1.00
-89.00	5.00	-13.00	55.00	6.00	17.00	-2.00
-84.00	10.00	-14.00	-8.00	10.00	25.00	-1.00
-77.00	-24.00	-16.00	-59.00	11.00	25.00	5.00
-22.00	-67.00	-69.00	-132.00	13.00	24.00	9.00
-3.00	-77.00	-16.00	-160.00	12.00	26.00	7.00
-48.00	-56.00	43.00	-191.00	17.00	31.00	2.00
-86.00	-55.00	15.00	-230.00	23.00	32.00	-8.00
-121.00	-50.00	-19.00	-273.00	24.00	34.00	-13.00
-104.00	-42.00	-86.00	-241.00	18.00	31.00	-12.00
-32.00	-13.00	-23.00	-123.00	14.00	16.00	-13.00
57.00	23.00	95.00	88.00	4.00	-8.00	-16.00
138.00	60.00	55.00	117.00	1.00	-20.00	-21.00
230.00	92.00	32.00	176.00	0.00	-20.00	-26.00
246.00	114.00	84.00	260.00	1.00	-21.00	-21.00
207.00	100.00	107.00	293.00	-1.00	-22.00	-18.00
141.00	87.00	133.00	205.00	2.00	-12.00	-16.00
93.00	61.00	52.00	103.00	15.00	-1.00	-8.00
54.00	31.00	-33.00	-3.00	21.00	4.00	-1.00
28.00	3.00	-140.00	-119.00	25.00	9.00	5.00
31.00	-15.00	-159.00	-183.00	24.00	21.00	13.00
9.00	-27.00	-126.00	-172.00	11.00	20.00	17.00
-16.00	-76.00	-125.00	-167.00	-1.00	22.00	16.00
-90.00	-107.00	-66.00	-131.00	5.00	26.00	19.00
-167.00	-112.00	8.00	-86.00	5.00	23.00	18.00
-181.00	-40.00	123.00	11.00	0.00	10.00	20.00
-120.00	54.00	164.00	161.00	8.00	9.00	25.00
-36.00	128.00	61.00	218.00	10.00	11.00	27.00
64.00	165.00	-8.00	235.00	13.00	9.00	19.00
116.00	141.00	-15.00	218.00	9.00	4.00	9.00
97.00	63.00	-12.00	143.00	20.00	3.00	9.00
62.00	-39.00	44.00	96.00	29.00	1.00	5.00
31.00	-107.00	82.00	59.00	47.00	6.00	-5.00
15.00	-60.00	60.00	23.00	60.00	8.00	-11.00
2.00	1.00	58.00	1.00	70.00	15.00	-13.00
-3.00	45.00	-2.00	-143.00	76.00	25.00	-10.00
-13.00	67.00	-81.00	-273.00	68.00	32.00	-2.00
-34.00	85.00	-139.00	-309.00	62.00	36.00	3.00
-47.00	86.00	-123.00	-347.00	51.00	39.00	7.00
-54.00	62.00	-69.00	-275.00	25.00	35.00	7.00
-41.00	49.00	-3.00	-98.00	19.00	24.00	5.00
-51.00	46.00	39.00	103.00	5.00	18.00	9.00
-79.00	57.00	105.00	328.00	-5.00	9.00	11.00
-91.00	48.00	163.00	476.00	-7.00	3.00	6.00
-100.00	-12.00	147.00	488.00	-17.00	-14.00	1.00
-62.00	-40.00	84.00	330.00	-24.00	-22.00	2.00
-17.00	-28.00	70.00	187.00	-10.00	-14.00	2.00
31.00	16.00	4.00	59.00	7.00	-5.00	-14.00
74.00	30.00	-55.00	-25.00	22.00	-1.00	-19.00
104.00	26.00	-65.00	-84.00	28.00	9.00	-11.00
93.00	5.00	-42.00	-108.00	21.00	9.00	-8.00
55.00	-51.00	17.00	-90.00	9.00	7.00	-7.00
41.00	-103.00	70.00	-142.00	-3.00	14.00	-6.00
20.00	-110.00	-7.00	-284.00	-24.00	24.00	-8.00
-4.00	-65.00	-72.00	-330.00	-34.00	30.00	-6.00
-53.00	-7.00	-102.00	-297.00	-31.00	33.00	-1.00
-113.00	16.00	-133.00	-223.00	-26.00	28.00	0.00
-135.00	23.00	-150.00	-111.00	-18.00	13.00	7.00
-114.00	2.00	-124.00	73.00	-20.00	0.00	11.00
-42.00	16.00	4.00	300.00	-10.00	-7.00	16.00
49.00	44.00	79.00	328.00	6.00	-4.00	18.00
123.00	70.00	83.00	235.00	17.00	-7.00	14.00
139.00	102.00	67.00	161.00	29.00	-9.00	7.00
133.00	104.00	95.00	139.00	45.00	-12.00	4.00
94.00	86.00	85.00	109.00	50.00	-8.00	3.00
62.00	77.00	66.00	79.00	57.00	1.00	-7.00
32.00	64.00	54.00	48.00	56.00	10.00	-14.00
10.00	25.00	54.00	4.00	53.00	17.00	-14.00
-13.00	-13.00	73.00	-22.00	41.00	17.00	-15.00
-13.00	-37.00	133.00	-9.00	34.00	15.00	-4.00
-15.00	-39.00	130.00	-22.00	33.00	18.00	-4.00
-60.00	-39.00	82.00	-37.00	28.00	20.00	3.00
-119.00	-49.00	58.00	-34.00	24.00	22.00	15.00
-177.00	-78.00	21.00	-82.00	22.00	33.00	25.00
-198.00	-85.00	-29.00	-116.00	17.00	36.00	31.00
-178.00	-76.00	-40.00	-103.00	7.00	25.00	36.00
-117.00	-74.00	-70.00	-88.00	2.00	14.00	35.00
-20.00	-70.00	-120.00	-109.00	0.00	12.00	32.00
75.00	-41.00	-195.00	-118.00	-6.00	9.00	29.00
120.00	39.00	-190.00	-114.00	-15.00	-1.00	23.00
131.00	123.00	-150.00	-96.00	-10.00	-1.00	23.00
125.00	143.00	-89.00	-90.00	-14.00	-5.00	10.00
117.00	132.00	-115.00	-98.00	-15.00	-8.00	0.00
105.00	56.00	-75.00	-15.00	-5.00	-12.00	-11.00
89.00	-20.00	62.00	112.00	-4.00	-10.00	-18.00
73.00	-45.00	151.00	95.00	1.00	-4.00	-21.00
82.00	-22.00	104.00	46.00	6.00	2.00	-21.00
58.00	35.00	130.00	49.00	10.00	8.00	-12.00
37.00	74.00	137.00	66.00	10.00	7.00	1.00
28.00	92.00	140.00	70.00	10.00	10.00	13.00
30.00	108.00	131.00	107.00	8.00	4.00	5.00
30.00	93.00	-13.00	81.00	6.00	1.00	-4.00
34.00	76.00	-67.00	46.00	6.00	2.00	-11.00
-9.00	51.00	-54.00	43.00	12.00	14.00	-24.00
-71.00	2.00	-30.00	32.00	13.00	13.00	-28.00
-133.00	-10.00	2.00	74.00	5.00	15.00	-29.00
-147.00	-3.00	-28.00	98.00	6.00	23.00	-30.00
-112.00	13.00	-22.00	138.00	3.00	26.00	-30.00
-66.00	33.00	-10.00	180.00	4.00	24.00	-37.00
4.00	41.00	25.00	155.00	8.00	18.00	-23.00
35.00	36.00	11.00	89.00	10.00	14.00	-3.00
45.00	16.00	-62.00	-14.00	14.00	6.00	5.00
57.00	-35.00	-80.00	-110.00	12.00	1.00	15.00
45.00	-94.00	-72.00	-127.00	10.00	1.00	28.00
63.00	-115.00	-84.00	-104.00	19.00	2.00	38.00
