
	7.00	71.00	41.00	44.00	12.00	-10.00	-3.00
	6.00	158.00	74.00	25.00	15.00	-10.00	2.00
	5.00	247.00	113.00	1.00	14.00	-12.00	1.00
	1.00	272.00	126.00	-15.00	13.00	-12.00	0.00
	-5.00	213.00	124.00	-6.00	17.00	-14.00	2.00
	2.00	59.00	83.00	53.00	18.00	-13.00	5.00
	5.00	-42.00	25.00	55.00	16.00	-3.00	-1.00
	-3.00	-44.00	-10.00	36.00	15.00	2.00	-2.00
	1.00	-48.00	-15.00	5.00	10.00	7.00	1.00
	8.00	-67.00	6.00	-39.00	18.00	4.00	-7.00
	10.00	-81.00	-16.00	-41.00	23.00	6.00	-11.00
	11.00	-183.00	-54.00	-34.00	22.00	15.00	-16.00
	4.00	-375.00	-88.00	-37.00	22.00	17.00	-12.00
	-1.00	-369.00	-58.00	-26.00	24.00	15.00	-1.00
	-2.00	-243.00	-39.00	-11.00	12.00	23.00	10.00
	-1.00	-95.00	-24.00	0.00	-12.00	40.00	13.00
	1.00	91.00	-43.00	22.00	-1.00	31.00	2.00
	2.00	265.00	-15.00	36.00	2.00	23.00	1.00
	-2.00	328.00	28.00	57.00	-2.00	19.00	5.00
	-4.00	248.00	62.00	62.00	5.00	11.00	5.00
	-3.00	98.00	68.00	38.00	11.00	7.00	0.00
	-3.00	-22.00	65.00	5.00	13.00	7.00	0.00
	1.00	-107.00	58.00	0.00	14.00	10.00	5.00
	-1.00	-236.00	36.00	-2.00	14.00	11.00	10.00
	5.00	-198.00	6.00	-23.00	20.00	12.00	8.00
	10.00	-86.00	-14.00	-43.00	20.00	15.00	6.00
	2.00	24.00	-25.00	-73.00	17.00	17.00	5.00
	2.00	113.00	-44.00	-63.00	11.00	16.00	1.00
	1.00	164.00	-59.00	-40.00	5.00	14.00	-2.00
	-1.00	162.00	-58.00	-26.00	9.00	12.00	-4.00
	-3.00	44.00	-51.00	-13.00	12.00	6.00	-2.00
	-1.00	35.00	-68.00	11.00	21.00	4.00	1.00
	1.00	70.00	-115.00	33.00	23.00	3.00	6.00
	-10.00	49.00	-139.00	44.00	15.00	1.00	2.00
	-11.00	-4.00	-119.00	54.00	12.00	-5.00	-1.00
	-7.00	4.00	-63.00	54.00	16.00	-2.00	0.00
	-13.00	-45.00	-17.00	53.00	16.00	-1.00	0.00
	-15.00	-134.00	42.00	51.00	21.00	-3.00	0.00
	-14.00	-150.00	115.00	40.00	26.00	-3.00	2.00
	-12.00	-127.00	158.00	28.00	28.00	-5.00	2.00
	-14.00	-74.00	182.00	1.00	21.00	-3.00	1.00
	-14.00	-35.00	151.00	-18.00	11.00	11.00	4.00
	-7.00	24.00	106.00	-40.00	9.00	15.00	4.00
	-7.00	159.00	56.00	-41.00	11.00	14.00	2.00
	-5.00	230.00	27.00	-28.00	10.00	15.00	0.00
	-4.00	234.00	-7.00	-6.00	3.00	21.00	0.00
	-10.00	230.00	-21.00	28.00	-9.00	31.00	-2.00
	-7.00	134.00	-18.00	56.00	-14.00	32.00	-5.00
	7.00	51.00	-8.00	49.00	-4.00	26.00	-7.00
	3.00	-7.00	-24.00	98.00	5.00	17.00	-7.00
	-2.00	-66.00	-42.00	98.00	5.00	13.00	-10.00
	3.00	-61.00	-39.00	57.00	3.00	16.00	-7.00
	1.00	-27.00	-39.00	8.00	11.00	11.00	-5.00
	-1.00	16.00	-16.00	-57.00	15.00	6.00	-5.00
	-5.00	60.00	-30.00	-51.00	8.00	12.00	-3.00
	-10.00	112.00	-25.00	-46.00	3.00	23.00	0.00
	-10.00	144.00	-7.00	-91.00	7.00	19.00	1.00
	-12.00	143.00	18.00	-107.00	12.00	11.00	4.00
	-9.00	125.00	36.00	-69.00	7.00	12.00	5.00
	-9.00	53.00	46.00	-24.00	-13.00	27.00	7.00
	-11.00	19.00	20.00	10.00	-1.00	15.00	4.00
	-7.00	0.00	-25.00	31.00	13.00	2.00	1.00
	-3.00	-71.00	-31.00	30.00	16.00	-4.00	-2.00
	-3.00	-152.00	-22.00	38.00	16.00	-9.00	-6.00
	-1.00	-147.00	-18.00	44.00	16.00	-11.00	-8.00
	-4.00	-117.00	-4.00	53.00	15.00	-13.00	-8.00
	1.00	-103.00	21.00	71.00	17.00	-15.00	0.00
	0.00	-128.00	48.00	79.00	20.00	-17.00	3.00
	3.00	-79.00	95.00	55.00	20.00	-19.00	-1.00
	6.00	-111.00	101.00	43.00	23.00	-20.00	-1.00
	12.00	-220.00	75.00	27.00	25.00	-17.00	-4.00
	14.00	-115.00	23.00	24.00	23.00	-9.00	-4.00
	7.00	29.00	-12.00	51.00	19.00	-8.00	-4.00
	6.00	119.00	-38.00	39.00	13.00	-11.00	-4.00
	5.00	258.00	-48.00	34.00	11.00	-12.00	-1.00
	1.00	333.00	-38.00	25.00	12.00	-15.00	9.00
	-4.00	356.00	-29.00	7.00	9.00	-16.00	11.00
	-4.00	255.00	-22.00	1.00	12.00	-19.00	13.00
	3.00	77.00	-6.00	-5.00	15.00	-19.00	13.00
	3.00	-121.00	3.00	-15.00	14.00	-20.00	9.00
	1.00	-292.00	-22.00	-29.00	14.00	-17.00	7.00
	-2.00	-319.00	-27.00	-47.00	12.00	-13.00	3.00
	-6.00	-227.00	-27.00	-46.00	10.00	-13.00	-2.00
	-5.00	-24.00	-18.00	-39.00	8.00	-10.00	-19.00
	-1.00	247.00	-5.00	3.00	7.00	-5.00	-34.00
	1.00	405.00	10.00	37.00	7.00	-4.00	-21.00
	4.00	347.00	19.00	34.00	12.00	-3.00	-15.00
	6.00	230.00	28.00	30.00	16.00	-2.00	-9.00
	2.00	102.00	32.00	19.00	15.00	-1.00	-7.00
	2.00	-14.00	39.00	5.00	16.00	2.00	-8.00
	7.00	-130.00	33.00	-3.00	17.00	6.00	-7.00
	4.00	-176.00	31.00	-26.00	15.00	10.00	-5.00
	-3.00	-142.00	21.00	-41.00	11.00	8.00	-7.00
	-5.00	-126.00	10.00	-49.00	11.00	14.00	-5.00
	-3.00	-86.00	-3.00	-48.00	9.00	24.00	-1.00
	-2.00	11.00	-20.00	-29.00	7.00	28.00	-2.00
	-1.00	45.00	-25.00	-20.00	10.00	25.00	1.00
	0.00	9.00	-42.00	30.00	14.00	24.00	0.00
	6.00	12.00	-57.00	60.00	15.00	21.00	1.00
	9.00	82.00	-92.00	59.00	18.00	18.00	1.00
	5.00	119.00	-81.00	52.00	21.00	15.00	3.00
	-1.00	136.00	-32.00	-7.00	23.00	7.00	1.00
	3.00	153.00	-12.00	-22.00	26.00	5.00	1.00
	4.00	105.00	13.00	-11.00	27.00	10.00	2.00
	1.00	-14.00	58.00	-13.00	24.00	15.00	0.00
	-7.00	-99.00	101.00	-27.00	21.00	18.00	0.00
	-5.00	-118.00	101.00	-26.00	10.00	28.00	0.00
	-8.00	-135.00	71.00	2.00	-15.00	52.00	1.00
	-5.00	-138.00	40.00	2.00	-15.00	51.00	-1.00
	18.00	-154.00	24.00	-5.00	-1.00	50.00	4.00
	21.00	-119.00	1.00	0.00	-1.00	44.00	3.00
	5.00	-143.00	-3.00	8.00	-1.00	50.00	1.00
	-5.00	-107.00	-3.00	11.00	3.00	50.00	1.00
	0.00	-38.00	-23.00	23.00	12.00	39.00	0.00
	8.00	6.00	-31.00	29.00	16.00	33.00	2.00
	2.00	-46.00	-23.00	36.00	15.00	27.00	2.00
	-1.00	-4.00	-2.00	32.00	14.00	24.00	4.00
	-1.00	56.00	11.00	18.00	16.00	19.00	4.00
	-2.00	134.00	-6.00	-34.00	15.00	15.00	4.00
	-9.00	242.00	-63.00	-57.00	9.00	10.00	4.00
	-10.00	258.00	-73.00	-57.00	9.00	7.00	4.00
	-18.00	162.00	-56.00	-51.00	6.00	8.00	2.00
	-17.00	167.00	-13.00	-24.00	9.00	9.00	3.00
	-12.00	98.00	16.00	14.00	12.00	3.00	2.00
	-9.00	47.00	33.00	32.00	14.00	-2.00	1.00
	-14.00	50.00	-4.00	57.00	14.00	-2.00	0.00
	-19.00	76.00	15.00	84.00	15.00	3.00	2.00
	-26.00	131.00	19.00	89.00	12.00	3.00	2.00
	-34.00	161.00	34.00	73.00	6.00	2.00	-3.00
	-34.00	208.00	48.00	56.00	5.00	8.00	-4.00
	-32.00	183.00	25.00	87.00	9.00	9.00	0.00
	-28.00	106.00	-14.00	105.00	9.00	9.00	-2.00
	-33.00	2.00	-12.00	68.00	8.00	5.00	-5.00
	-38.00	-82.00	15.00	33.00	13.00	3.00	-4.00
	-36.00	-141.00	70.00	-27.00	12.00	4.00	-2.00
	-27.00	-147.00	87.00	-50.00	9.00	10.00	4.00
	-22.00	-113.00	55.00	-28.00	4.00	8.00	-2.00
	-13.00	-81.00	33.00	-30.00	6.00	14.00	0.00
	-6.00	-56.00	20.00	-34.00	8.00	15.00	0.00
	-3.00	-38.00	19.00	-41.00	3.00	13.00	1.00
	3.00	-16.00	3.00	-23.00	-15.00	29.00	13.00
	13.00	-13.00	-10.00	6.00	-21.00	31.00	13.00
	21.00	-7.00	-17.00	16.00	-8.00	17.00	7.00
	27.00	-10.00	-15.00	6.00	-3.00	8.00	3.00
	43.00	-48.00	-3.00	4.00	-2.00	6.00	6.00
	61.00	-52.00	20.00	-37.00	-1.00	4.00	0.00
	89.00	-84.00	12.00	-35.00	1.00	8.00	0.00
	116.00	-188.00	-50.00	-28.00	2.00	6.00	-5.00
	127.00	-228.00	-52.00	-5.00	2.00	8.00	-6.00
	126.00	-280.00	-40.00	1.00	4.00	7.00	-4.00
	139.00	-215.00	-27.00	0.00	5.00	14.00	-5.00
	152.00	-97.00	-29.00	26.00	0.00	28.00	-4.00
	158.00	-44.00	21.00	1.00	-2.00	37.00	-2.00
	165.00	34.00	55.00	-22.00	-4.00	41.00	-1.00
	164.00	60.00	48.00	6.00	7.00	34.00	0.00
	155.00	61.00	43.00	21.00	14.00	28.00	1.00
	151.00	62.00	37.00	25.00	28.00	22.00	2.00
	142.00	166.00	40.00	13.00	26.00	18.00	-4.00
	140.00	253.00	23.00	-2.00	28.00	17.00	-5.00
	127.00	325.00	-3.00	-14.00	39.00	15.00	-3.00
	109.00	344.00	-46.00	-20.00	46.00	17.00	4.00
	95.00	330.00	-83.00	-18.00	58.00	18.00	19.00
	70.00	388.00	-82.00	2.00	68.00	12.00	10.00
	45.00	348.00	-74.00	24.00	76.00	6.00	4.00
	9.00	228.00	-83.00	48.00	75.00	3.00	0.00
	-29.00	56.00	-95.00	65.00	72.00	2.00	-1.00
	-69.00	-75.00	-88.00	72.00	65.00	5.00	-2.00
	-112.00	-164.00	-96.00	72.00	48.00	6.00	-5.00
	-143.00	-172.00	-117.00	97.00	41.00	7.00	-4.00
	-164.00	-162.00	-98.00	89.00	33.00	5.00	-6.00
	-172.00	-156.00	-52.00	62.00	19.00	13.00	-3.00
	-193.00	-166.00	-23.00	34.00	13.00	16.00	-7.00
	-214.00	-191.00	33.00	-13.00	15.00	8.00	-6.00
	-228.00	-212.00	73.00	-50.00	15.00	1.00	-5.00
	-251.00	-208.00	59.00	-34.00	9.00	2.00	-4.00
	-265.00	-186.00	43.00	-9.00	0.00	8.00	1.00
	-262.00	-92.00	43.00	5.00	-9.00	7.00	1.00
	-256.00	-1.00	48.00	4.00	-17.00	7.00	2.00
	-248.00	27.00	56.00	-19.00	-41.00	19.00	4.00
	-240.00	72.00	49.00	-40.00	-50.00	18.00	1.00
	-227.00	94.00	43.00	-40.00	-32.00	1.00	2.00
	-205.00	27.00	69.00	-54.00	-24.00	-4.00	2.00
	-181.00	2.00	88.00	-42.00	-23.00	-6.00	3.00
	-156.00	22.00	96.00	-28.00	-20.00	-9.00	2.00
	-135.00	44.00	89.00	-5.00	-19.00	-11.00	3.00
	-110.00	47.00	55.00	16.00	-15.00	-10.00	2.00
	-96.00	34.00	42.00	38.00	-18.00	0.00	11.00
	-75.00	-80.00	54.00	33.00	-20.00	7.00	11.00
	-57.00	-141.00	68.00	12.00	-12.00	7.00	8.00
	-30.00	-165.00	51.00	15.00	-3.00	6.00	-1.00
	-12.00	-113.00	55.00	-4.00	-1.00	5.00	1.00
	0.00	50.00	59.00	-23.00	0.00	3.00	1.00
	18.00	178.00	43.00	-28.00	1.00	6.00	-2.00
	26.00	291.00	28.00	-33.00	2.00	8.00	-8.00
	40.00	356.00	7.00	-19.00	7.00	6.00	-31.00
	52.00	334.00	-22.00	28.00	6.00	7.00	-21.00
	64.00	251.00	-31.00	46.00	0.00	7.00	-6.00
	78.00	168.00	-60.00	42.00	6.00	-5.00	2.00
	95.00	-11.00	-65.00	37.00	12.00	-16.00	6.00
	98.00	-183.00	-50.00	29.00	15.00	-19.00	6.00
	96.00	-251.00	-17.00	20.00	16.00	-21.00	4.00
	99.00	-190.00	8.00	11.00	16.00	-19.00	4.00
	98.00	-195.00	21.00	-19.00	16.00	-15.00	6.00
	104.00	-116.00	17.00	-16.00	18.00	-14.00	7.00
	106.00	53.00	8.00	15.00	19.00	-17.00	4.00
	99.00	173.00	-16.00	60.00	16.00	-11.00	5.00
	101.00	104.00	-24.00	64.00	16.00	-7.00	2.00
	95.00	50.00	-20.00	60.00	14.00	-7.00	2.00
	89.00	178.00	-18.00	38.00	16.00	-8.00	1.00
	89.00	278.00	-3.00	-34.00	25.00	-11.00	0.00
	85.00	292.00	-19.00	-53.00	27.00	-8.00	-4.00
	81.00	133.00	-25.00	-51.00	26.00	1.00	-5.00
	71.00	-5.00	-40.00	-31.00	24.00	8.00	1.00
	61.00	-64.00	-113.00	-14.00	22.00	8.00	-1.00
	68.00	-86.00	-108.00	-15.00	11.00	19.00	4.00
	70.00	-64.00	-77.00	-10.00	-2.00	27.00	6.00
	67.00	-28.00	-29.00	12.00	10.00	15.00	5.00
	57.00	31.00	13.00	40.00	19.00	8.00	4.00
	51.00	29.00	59.00	57.00	21.00	3.00	0.00
	50.00	-9.00	93.00	31.00	24.00	6.00	0.00
	49.00	-84.00	105.00	1.00	19.00	12.00	1.00
	37.00	-182.00	104.00	-33.00	15.00	18.00	2.00
	29.00	-257.00	96.00	-55.00	18.00	19.00	9.00
	28.00	-438.00	79.00	-56.00	19.00	10.00	2.00
	27.00	-353.00	48.00	-34.00	21.00	7.00	-4.00
	18.00	-217.00	7.00	2.00	22.00	7.00	-7.00
	14.00	-5.00	-20.00	26.00	23.00	6.00	-2.00
	2.00	282.00	-20.00	38.00	19.00	7.00	12.00
	-2.00	458.00	-10.00	33.00	17.00	7.00	12.00
	8.00	412.00	1.00	29.00	17.00	6.00	8.00
	11.00	296.00	9.00	24.00	20.00	2.00	3.00
	4.00	156.00	2.00	27.00	22.00	1.00	3.00
	2.00	98.00	-33.00	24.00	24.00	3.00	4.00
	2.00	51.00	-101.00	24.00	27.00	2.00	3.00
	3.00	28.00	-172.00	14.00	25.00	4.00	3.00
	11.00	-121.00	-148.00	-7.00	22.00	11.00	4.00
	10.00	-105.00	-78.00	-18.00	18.00	13.00	4.00
	7.00	-6.00	2.00	-26.00	9.00	21.00	3.00
	1.00	98.00	37.00	1.00	3.00	22.00	-14.00
	-2.00	191.00	49.00	14.00	10.00	14.00	-21.00
	-6.00	168.00	88.00	11.00	17.00	13.00	-3.00
	-6.00	88.00	117.00	17.00	20.00	13.00	7.00
	-5.00	-50.00	121.00	14.00	13.00	18.00	6.00
	-7.00	-74.00	94.00	30.00	5.00	18.00	6.00
	-9.00	-24.00	62.00	72.00	8.00	14.00	4.00
	-13.00	32.00	14.00	69.00	9.00	14.00	2.00
	-22.00	20.00	38.00	57.00	7.00	15.00	1.00
	-14.00	-30.00	11.00	37.00	10.00	16.00	-8.00
	-12.00	-138.00	-7.00	-31.00	18.00	14.00	-12.00
	-11.00	-209.00	-70.00	-8.00	21.00	17.00	-4.00
	-11.00	-231.00	-99.00	0.00	23.00	18.00	-3.00
	-9.00	-136.00	-89.00	-7.00	23.00	21.00	4.00
	-16.00	44.00	-58.00	-25.00	20.00	22.00	2.00
	-17.00	201.00	-50.00	-8.00	8.00	29.00	-6.00
	-5.00	239.00	-34.00	10.00	-8.00	43.00	3.00
	-11.00	182.00	-42.00	44.00	0.00	29.00	9.00
	-15.00	107.00	-34.00	38.00	12.00	24.00	7.00
	-5.00	79.00	-31.00	22.00	12.00	27.00	9.00
	-9.00	40.00	-35.00	20.00	8.00	29.00	7.00
	-18.00	17.00	-24.00	9.00	6.00	31.00	12.00
	-17.00	8.00	-8.00	-6.00	2.00	37.00	12.00
	-15.00	-75.00	26.00	-30.00	3.00	34.00	8.00
	-12.00	-90.00	67.00	-59.00	8.00	30.00	-6.00
	-14.00	-72.00	87.00	-69.00	6.00	33.00	-22.00
	-17.00	-92.00	104.00	-60.00	9.00	30.00	-10.00
	-20.00	-135.00	101.00	-43.00	2.00	30.00	-4.00
	-21.00	-220.00	112.00	-36.00	4.00	27.00	0.00
	-16.00	-202.00	90.00	-15.00	6.00	23.00	2.00
	-12.00	-193.00	53.00	-15.00	10.00	19.00	2.00
	-6.00	-201.00	-11.00	9.00	12.00	14.00	0.00
	-11.00	-112.00	-45.00	25.00	11.00	10.00	0.00
	-16.00	90.00	-68.00	29.00	8.00	9.00	-3.00
	-10.00	187.00	-83.00	35.00	11.00	8.00	0.00
	-10.00	187.00	-71.00	38.00	12.00	8.00	1.00
	-6.00	106.00	-52.00	42.00	14.00	7.00	1.00
	-8.00	84.00	-29.00	41.00	13.00	6.00	2.00
	-10.00	90.00	-6.00	35.00	15.00	4.00	4.00
	-10.00	122.00	13.00	28.00	13.00	4.00	6.00
	-8.00	133.00	32.00	14.00	11.00	7.00	8.00
	-12.00	102.00	18.00	8.00	13.00	3.00	7.00
	-11.00	105.00	11.00	26.00	17.00	-1.00	7.00
	-5.00	123.00	5.00	38.00	16.00	-4.00	5.00
	1.00	53.00	-27.00	35.00	16.00	-3.00	4.00
	-8.00	-99.00	-90.00	27.00	16.00	-4.00	1.00
	-1.00	-223.00	-89.00	20.00	18.00	-5.00	3.00
	15.00	-188.00	-74.00	14.00	20.00	-7.00	3.00
	10.00	-79.00	-37.00	27.00	20.00	-6.00	4.00
	-4.00	62.00	-22.00	53.00	17.00	0.00	0.00
	-8.00	207.00	11.00	54.00	11.00	11.00	-7.00
	-4.00	340.00	66.00	31.00	10.00	15.00	-2.00
	2.00	301.00	95.00	28.00	7.00	14.00	-3.00
	7.00	93.00	136.00	-8.00	16.00	1.00	-5.00
	14.00	-119.00	139.00	-37.00	20.00	-7.00	-4.00
	9.00	-440.00	116.00	-42.00	22.00	-8.00	-1.00
	7.00	-587.00	84.00	-49.00	20.00	2.00	1.00
	1.00	-454.00	34.00	-64.00	15.00	7.00	0.00
	-1.00	-235.00	-13.00	-60.00	7.00	13.00	5.00
	4.00	45.00	-15.00	-62.00	-16.00	26.00	5.00
	-4.00	361.00	5.00	-63.00	-19.00	21.00	5.00
	-10.00	521.00	14.00	-40.00	-2.00	6.00	4.00
	-8.00	588.00	23.00	-22.00	5.00	-4.00	4.00
	-3.00	528.00	25.00	12.00	11.00	-7.00	1.00
	-2.00	371.00	26.00	41.00	13.00	-6.00	1.00
	-7.00	204.00	-5.00	28.00	13.00	-10.00	-3.00
	-4.00	127.00	-40.00	23.00	12.00	-11.00	-5.00
	-1.00	36.00	-53.00	34.00	13.00	-7.00	-2.00
	-1.00	-29.00	-64.00	51.00	13.00	-2.00	-1.00
	-1.00	-126.00	-106.00	66.00	8.00	5.00	9.00
	3.00	-193.00	-99.00	60.00	8.00	4.00	6.00
	6.00	-245.00	-60.00	46.00	8.00	1.00	5.00
	0.00	-235.00	-5.00	24.00	5.00	1.00	2.00
	-1.00	-215.00	38.00	-2.00	5.00	4.00	0.00
	-2.00	-222.00	53.00	-5.00	11.00	3.00	-1.00
	4.00	-57.00	50.00	-11.00	17.00	5.00	1.00
	3.00	60.00	26.00	-5.00	12.00	5.00	2.00
	4.00	104.00	-3.00	8.00	15.00	6.00	1.00
	-7.00	173.00	-11.00	18.00	14.00	4.00	2.00
	-2.00	139.00	-24.00	15.00	12.00	3.00	2.00
	2.00	140.00	-38.00	24.00	13.00	6.00	5.00
	-3.00	86.00	-41.00	24.00	14.00	7.00	4.00
	-3.00	34.00	-40.00	66.00	11.00	8.00	4.00
	-6.00	10.00	3.00	69.00	12.00	4.00	2.00
	5.00	96.00	35.00	56.00	13.00	5.00	3.00
	5.00	157.00	54.00	33.00	16.00	3.00	2.00
	-4.00	99.00	91.00	-37.00	16.00	2.00	0.00
	-1.00	95.00	75.00	-56.00	18.00	2.00	-1.00
	0.00	114.00	39.00	-29.00	19.00	6.00	0.00
	-3.00	70.00	-22.00	0.00	18.00	9.00	0.00
	0.00	-111.00	-89.00	18.00	21.00	8.00	0.00
	6.00	-195.00	-142.00	28.00	15.00	10.00	-1.00
	6.00	-195.00	-130.00	17.00	-3.00	28.00	0.00
	5.00	-189.00	-103.00	14.00	3.00	25.00	-1.00
	1.00	-171.00	-69.00	25.00	17.00	14.00	-1.00
	5.00	-115.00	-17.00	38.00	17.00	12.00	-1.00
	4.00	-47.00	36.00	-7.00	18.00	16.00	1.00
	2.00	-73.00	81.00	-45.00	22.00	15.00	2.00
	0.00	-99.00	105.00	-69.00	25.00	12.00	4.00
	-5.00	-96.00	116.00	-70.00	20.00	11.00	-2.00
	-9.00	-32.00	136.00	-76.00	10.00	20.00	1.00
	-18.00	118.00	132.00	-90.00	-2.00	25.00	2.00
	-22.00	189.00	106.00	-88.00	1.00	22.00	9.00
	-17.00	168.00	75.00	-62.00	-1.00	25.00	17.00
	-8.00	123.00	32.00	-31.00	-7.00	27.00	13.00
	-1.00	-29.00	-16.00	7.00	3.00	20.00	15.00
	1.00	-177.00	-57.00	29.00	9.00	14.00	9.00
	2.00	-201.00	-95.00	41.00	10.00	14.00	3.00
	12.00	-105.00	-107.00	52.00	11.00	16.00	-4.00
	8.00	-54.00	-82.00	69.00	18.00	14.00	-4.00
	-2.00	-85.00	-52.00	68.00	18.00	10.00	-3.00
	-4.00	38.00	-34.00	64.00	17.00	8.00	-3.00
	2.00	138.00	-15.00	62.00	15.00	11.00	-2.00
	-3.00	143.00	6.00	43.00	17.00	10.00	-1.00
	-11.00	192.00	17.00	28.00	16.00	8.00	-4.00
	-12.00	230.00	11.00	28.00	13.00	10.00	-3.00
	1.00	106.00	-10.00	36.00	9.00	15.00	-2.00
	3.00	4.00	-47.00	47.00	6.00	21.00	-2.00
	-8.00	-21.00	-62.00	24.00	0.00	27.00	2.00
	-10.00	47.00	-34.00	-2.00	1.00	33.00	4.00
	-10.00	87.00	-1.00	-2.00	5.00	25.00	4.00
	-7.00	119.00	24.00	6.00	12.00	16.00	5.00
	-5.00	191.00	48.00	-7.00	17.00	12.00	5.00
	-5.00	177.00	49.00	-17.00	15.00	7.00	4.00
	-3.00	46.00	40.00	-7.00	17.00	5.00	4.00
	6.00	-39.00	46.00	20.00	18.00	5.00	4.00
	6.00	-55.00	44.00	-3.00	14.00	10.00	2.00
	1.00	-73.00	28.00	-4.00	11.00	13.00	1.00
	7.00	-170.00	3.00	10.00	13.00	9.00	-1.00
	3.00	-140.00	-16.00	12.00	14.00	5.00	-2.00
	-5.00	-77.00	-22.00	3.00	11.00	0.00	-6.00
	-2.00	1.00	-18.00	-3.00	16.00	0.00	-4.00
	-4.00	25.00	-27.00	21.00	17.00	-6.00	-5.00
	-4.00	42.00	-20.00	31.00	18.00	-8.00	-5.00
	-2.00	22.00	-1.00	3.00	16.00	-3.00	-4.00
	-4.00	-14.00	-32.00	-7.00	15.00	-2.00	-4.00
	0.00	21.00	-37.00	-62.00	19.00	-4.00	-6.00
	4.00	76.00	-31.00	-86.00	24.00	-8.00	-4.00
	8.00	127.00	-15.00	-39.00	24.00	-5.00	-3.00
	4.00	143.00	13.00	-36.00	18.00	2.00	-2.00
	-2.00	151.00	57.00	-11.00	21.00	7.00	1.00
	0.00	79.00	80.00	0.00	17.00	6.00	5.00
	1.00	7.00	123.00	26.00	-8.00	23.00	11.00
	6.00	-75.00	147.00	39.00	-18.00	28.00	13.00
	12.00	-128.00	133.00	57.00	-1.00	14.00	7.00
	10.00	-118.00	86.00	45.00	4.00	7.00	8.00
	14.00	-153.00	28.00	31.00	7.00	4.00	7.00
	12.00	-174.00	-9.00	23.00	9.00	-3.00	3.00
	6.00	-244.00	-40.00	32.00	5.00	-4.00	0.00
	2.00	-229.00	-65.00	39.00	7.00	-3.00	-1.00
	-2.00	-82.00	-52.00	21.00	9.00	-5.00	-2.00
	2.00	34.00	-62.00	41.00	8.00	-4.00	-4.00
	5.00	124.00	-50.00	58.00	9.00	-5.00	-5.00
	3.00	240.00	-36.00	61.00	11.00	-3.00	-4.00
	3.00	266.00	-32.00	66.00	14.00	-4.00	-4.00
	0.00	152.00	-36.00	60.00	14.00	-5.00	-4.00
	0.00	-1.00	-24.00	50.00	14.00	-1.00	-1.00
	2.00	-52.00	-18.00	33.00	13.00	-3.00	2.00
	5.00	-33.00	-14.00	9.00	12.00	-1.00	5.00
	1.00	57.00	-6.00	-14.00	11.00	-1.00	6.00
	3.00	36.00	0.00	-36.00	10.00	0.00	6.00
	1.00	-5.00	6.00	-48.00	11.00	0.00	7.00
	-3.00	35.00	16.00	-50.00	10.00	-1.00	6.00
	-4.00	21.00	7.00	-45.00	11.00	-2.00	5.00
	-2.00	50.00	-3.00	-20.00	14.00	-1.00	6.00
	-1.00	81.00	-37.00	-19.00	13.00	0.00	4.00
	-7.00	74.00	-41.00	-14.00	10.00	5.00	3.00
	-12.00	94.00	-45.00	-8.00	8.00	5.00	0.00
	-8.00	73.00	-32.00	-17.00	5.00	6.00	-2.00
	-3.00	7.00	-5.00	-30.00	5.00	12.00	-2.00
	-5.00	-104.00	7.00	-16.00	11.00	11.00	-2.00
	-3.00	-78.00	0.00	29.00	13.00	11.00	-2.00
	-1.00	26.00	13.00	31.00	11.00	13.00	-4.00
	-8.00	104.00	39.00	37.00	13.00	12.00	-3.00
	-4.00	52.00	53.00	27.00	12.00	6.00	-4.00
	12.00	-109.00	64.00	-5.00	12.00	10.00	-2.00
	10.00	-145.00	24.00	0.00	7.00	22.00	1.00
	14.00	-71.00	-29.00	-3.00	13.00	23.00	2.00
	16.00	31.00	-55.00	-6.00	14.00	19.00	2.00
	12.00	132.00	-86.00	3.00	13.00	15.00	3.00
	2.00	253.00	-70.00	4.00	1.00	23.00	3.00
	-8.00	285.00	-28.00	5.00	-16.00	33.00	5.00
	-9.00	168.00	21.00	21.00	-1.00	18.00	4.00
	-4.00	91.00	66.00	53.00	9.00	5.00	1.00
	-1.00	17.00	113.00	62.00	12.00	2.00	1.00
	-3.00	38.00	140.00	61.00	13.00	1.00	0.00
	-1.00	119.00	111.00	33.00	20.00	2.00	1.00
	-4.00	140.00	41.00	3.00	17.00	5.00	2.00
	-5.00	115.00	-7.00	-3.00	9.00	8.00	0.00
	2.00	97.00	-18.00	-20.00	-1.00	17.00	0.00
	5.00	19.00	-38.00	-29.00	-3.00	22.00	-2.00
	2.00	-75.00	-42.00	-11.00	0.00	25.00	-4.00
	1.00	-188.00	-23.00	2.00	-1.00	35.00	-5.00
	1.00	-178.00	2.00	-16.00	9.00	35.00	-6.00
	-3.00	-179.00	25.00	-36.00	14.00	32.00	-5.00
	-5.00	-166.00	43.00	-44.00	16.00	28.00	-3.00
	-2.00	-163.00	27.00	-27.00	12.00	22.00	-2.00
	-4.00	-139.00	11.00	-10.00	2.00	29.00	2.00
	-4.00	-48.00	-23.00	-13.00	7.00	24.00	1.00
	-2.00	47.00	-39.00	-20.00	16.00	14.00	0.00
	-9.00	130.00	-31.00	1.00	19.00	12.00	1.00
	-5.00	150.00	-29.00	25.00	17.00	6.00	3.00
	3.00	-10.00	-28.00	55.00	20.00	1.00	4.00
	1.00	-108.00	-48.00	73.00	20.00	-4.00	4.00
	-2.00	-46.00	-61.00	128.00	21.00	-10.00	-1.00
	-5.00	-30.00	-48.00	119.00	23.00	-10.00	-1.00
	-11.00	20.00	-25.00	60.00	21.00	-5.00	1.00
	-15.00	124.00	-1.00	9.00	21.00	-4.00	-1.00
	-7.00	156.00	49.00	-34.00	22.00	-5.00	0.00
	-3.00	125.00	68.00	-66.00	18.00	-1.00	3.00
	-1.00	77.00	69.00	-73.00	11.00	8.00	8.00
	-9.00	41.00	3.00	-98.00	12.00	10.00	8.00
	-8.00	17.00	-47.00	-89.00	11.00	16.00	6.00
	-10.00	-12.00	-35.00	-84.00	7.00	20.00	4.00
	-11.00	-68.00	14.00	-86.00	-10.00	28.00	5.00
	-9.00	-85.00	45.00	-65.00	-9.00	18.00	2.00
	-4.00	-177.00	64.00	-21.00	6.00	2.00	-6.00
	-9.00	-197.00	92.00	0.00	7.00	-1.00	-28.00
	-5.00	-319.00	100.00	22.00	15.00	-5.00	-26.00
	1.00	-278.00	101.00	37.00	15.00	-9.00	-12.00
	-2.00	-220.00	72.00	58.00	11.00	-11.00	-5.00
	1.00	-106.00	40.00	58.00	13.00	-12.00	1.00
	-5.00	18.00	10.00	44.00	8.00	-11.00	1.00
	6.00	116.00	-34.00	41.00	7.00	-12.00	1.00
	3.00	250.00	-58.00	36.00	6.00	-11.00	2.00
	-9.00	359.00	-44.00	24.00	4.00	-12.00	2.00
	-10.00	357.00	-53.00	36.00	9.00	-11.00	2.00
	-4.00	295.00	-57.00	50.00	14.00	-12.00	3.00
	3.00	167.00	-47.00	45.00	16.00	-10.00	3.00
	-1.00	77.00	-50.00	42.00	15.00	-7.00	2.00
	-4.00	39.00	-61.00	52.00	15.00	-3.00	2.00
	-8.00	63.00	-64.00	62.00	11.00	-1.00	1.00
	-9.00	71.00	-48.00	56.00	9.00	2.00	3.00
	-6.00	75.00	-30.00	48.00	12.00	2.00	-1.00
	-9.00	168.00	-20.00	53.00	8.00	9.00	-1.00
	-10.00	219.00	-43.00	38.00	10.00	16.00	2.00
	-9.00	180.00	-54.00	21.00	12.00	9.00	2.00
	-9.00	111.00	-28.00	14.00	14.00	5.00	4.00
	-5.00	6.00	-5.00	14.00	16.00	3.00	4.00
	2.00	-100.00	19.00	17.00	17.00	5.00	5.00
	6.00	-142.00	45.00	0.00	19.00	6.00	7.00
	9.00	-164.00	78.00	-25.00	20.00	7.00	7.00
	10.00	-140.00	89.00	-12.00	17.00	8.00	5.00
	6.00	-110.00	86.00	-4.00	15.00	8.00	2.00
	-1.00	-226.00	61.00	21.00	12.00	15.00	3.00
	-8.00	-178.00	7.00	44.00	9.00	18.00	6.00
	-5.00	-125.00	-22.00	61.00	1.00	15.00	10.00
	-10.00	-59.00	-25.00	45.00	6.00	14.00	11.00
	-10.00	-20.00	-19.00	14.00	9.00	14.00	6.00
	-5.00	14.00	-25.00	-28.00	9.00	12.00	4.00
	-8.00	126.00	11.00	-95.00	9.00	9.00	1.00
	-7.00	176.00	1.00	-91.00	9.00	7.00	-3.00
	2.00	167.00	17.00	-62.00	11.00	10.00	-6.00
	8.00	152.00	35.00	-45.00	12.00	12.00	-6.00
	10.00	107.00	50.00	-48.00	11.00	23.00	-3.00
	15.00	87.00	49.00	-47.00	-7.00	45.00	0.00
	16.00	89.00	73.00	-34.00	-25.00	58.00	-1.00
	10.00	52.00	70.00	3.00	-9.00	45.00	1.00
	3.00	53.00	48.00	20.00	0.00	33.00	2.00
	-1.00	74.00	22.00	14.00	4.00	28.00	3.00
	-1.00	38.00	7.00	-2.00	12.00	22.00	5.00
	-3.00	-55.00	2.00	-28.00	14.00	20.00	6.00
	-12.00	-98.00	1.00	-49.00	11.00	18.00	3.00
	-11.00	-147.00	-4.00	-55.00	11.00	20.00	2.00
	-11.00	-194.00	-6.00	-31.00	7.00	22.00	1.00
	-9.00	-164.00	-28.00	5.00	10.00	17.00	1.00
	-10.00	-199.00	-33.00	21.00	16.00	14.00	9.00
	-6.00	-173.00	-36.00	49.00	20.00	11.00	11.00
	-7.00	-171.00	-23.00	77.00	21.00	9.00	1.00
	0.00	-79.00	-28.00	90.00	22.00	5.00	-2.00
	8.00	68.00	-85.00	103.00	21.00	6.00	-1.00
	13.00	157.00	-88.00	86.00	23.00	7.00	-1.00
	7.00	192.00	-37.00	82.00	23.00	5.00	-6.00
	1.00	181.00	10.00	61.00	24.00	3.00	-5.00
	2.00	124.00	-10.00	46.00	27.00	4.00	-1.00
	7.00	-208.00	-7.00	31.00	26.00	5.00	-2.00
	5.00	-454.00	29.00	18.00	24.00	11.00	2.00
	-3.00	-513.00	70.00	-10.00	19.00	16.00	4.00
	-6.00	-379.00	67.00	-14.00	19.00	21.00	5.00
	-1.00	-132.00	44.00	10.00	22.00	18.00	5.00
	2.00	199.00	32.00	44.00	21.00	15.00	6.00
	-12.00	577.00	31.00	11.00	12.00	13.00	6.00
	-14.00	752.00	3.00	-6.00	17.00	12.00	7.00
	-8.00	694.00	-8.00	-9.00	19.00	11.00	5.00
	-5.00	542.00	-1.00	-38.00	20.00	10.00	5.00
	-1.00	321.00	-58.00	-20.00	22.00	8.00	1.00
	-4.00	130.00	-66.00	-7.00	20.00	11.00	1.00
	-1.00	3.00	-39.00	-16.00	23.00	8.00	1.00
	0.00	-29.00	-9.00	-21.00	27.00	6.00	-1.00
	3.00	-16.00	-30.00	-20.00	21.00	9.00	0.00
	9.00	-37.00	-10.00	-14.00	1.00	24.00	2.00
	17.00	-30.00	-1.00	-20.00	7.00	17.00	1.00
	12.00	-69.00	41.00	-33.00	19.00	9.00	-1.00
	5.00	-97.00	50.00	-12.00	19.00	11.00	-3.00
	12.00	-96.00	48.00	39.00	11.00	18.00	-3.00
	11.00	21.00	67.00	60.00	0.00	22.00	0.00
	6.00	114.00	70.00	65.00	-8.00	26.00	0.00
	-2.00	28.00	53.00	58.00	-6.00	26.00	2.00
	-5.00	-115.00	29.00	27.00	1.00	21.00	1.00
	1.00	-164.00	-5.00	-21.00	8.00	14.00	1.00
	0.00	-155.00	-37.00	-37.00	13.00	5.00	2.00
	1.00	-97.00	-54.00	-22.00	18.00	0.00	1.00
	-3.00	-59.00	-46.00	-24.00	19.00	1.00	1.00
	-12.00	-77.00	-7.00	-34.00	14.00	7.00	2.00
	-12.00	-65.00	9.00	-38.00	11.00	7.00	1.00
	-11.00	-36.00	19.00	-53.00	6.00	8.00	2.00
	-5.00	-2.00	27.00	-54.00	2.00	8.00	0.00
	-10.00	36.00	13.00	-34.00	4.00	1.00	-2.00
	-12.00	26.00	-25.00	-3.00	6.00	1.00	-3.00
	-10.00	115.00	-37.00	2.00	0.00	8.00	-2.00
	-8.00	82.00	-31.00	-12.00	2.00	9.00	-1.00
	-7.00	16.00	-14.00	-13.00	7.00	5.00	-2.00
	0.00	-65.00	-12.00	6.00	12.00	-3.00	-4.00
	6.00	-254.00	-13.00	21.00	18.00	-4.00	-5.00
	9.00	-226.00	-10.00	38.00	21.00	-6.00	-4.00
	12.00	-107.00	-17.00	54.00	21.00	-4.00	-4.00
	8.00	24.00	-15.00	47.00	23.00	-2.00	-2.00
	5.00	91.00	-26.00	23.00	23.00	3.00	-4.00
	4.00	179.00	-39.00	14.00	21.00	8.00	-1.00
	-7.00	203.00	-65.00	33.00	23.00	3.00	-2.00
	-2.00	100.00	-69.00	39.00	26.00	0.00	0.00
	10.00	-48.00	-49.00	36.00	27.00	-3.00	1.00
	5.00	-47.00	-30.00	20.00	24.00	-3.00	1.00
	0.00	76.00	6.00	-27.00	20.00	-2.00	0.00
	1.00	179.00	16.00	-30.00	22.00	-1.00	2.00
	-1.00	158.00	26.00	-3.00	24.00	4.00	4.00
	-4.00	59.00	49.00	4.00	23.00	6.00	8.00
	-13.00	34.00	82.00	4.00	19.00	9.00	7.00
	-7.00	39.00	88.00	7.00	12.00	12.00	2.00
	-2.00	110.00	90.00	-4.00	-9.00	27.00	5.00
	-3.00	215.00	94.00	-4.00	-13.00	29.00	4.00
	-12.00	206.00	73.00	7.00	-1.00	16.00	-1.00
	-6.00	51.00	47.00	38.00	7.00	15.00	0.00
	-3.00	-35.00	18.00	61.00	12.00	15.00	-2.00
	5.00	-87.00	13.00	75.00	14.00	17.00	0.00
	4.00	-194.00	-14.00	80.00	7.00	13.00	-1.00
	4.00	-263.00	-35.00	98.00	13.00	8.00	-2.00
	8.00	-177.00	-79.00	51.00	20.00	6.00	0.00
	9.00	-58.00	-88.00	13.00	18.00	8.00	2.00
	10.00	-118.00	-51.00	0.00	8.00	12.00	2.00
	-5.00	-181.00	-11.00	-9.00	2.00	15.00	3.00
	-17.00	-129.00	22.00	-41.00	-1.00	14.00	1.00
	-14.00	26.00	70.00	-69.00	9.00	8.00	1.00
	-11.00	139.00	84.00	-63.00	12.00	8.00	2.00
	-3.00	200.00	94.00	-53.00	12.00	8.00	-1.00
	1.00	307.00	62.00	-52.00	11.00	6.00	1.00
	-2.00	355.00	31.00	-28.00	12.00	3.00	3.00
	4.00	273.00	-16.00	12.00	12.00	3.00	0.00
	0.00	182.00	-57.00	34.00	14.00	3.00	0.00
	3.00	117.00	-98.00	32.00	13.00	1.00	-1.00
	13.00	9.00	-120.00	29.00	12.00	6.00	2.00
	17.00	-12.00	-120.00	30.00	11.00	4.00	0.00
	1.00	-39.00	-112.00	50.00	8.00	6.00	-3.00
	-7.00	-52.00	-85.00	59.00	6.00	12.00	-2.00
	1.00	-48.00	-24.00	71.00	13.00	8.00	0.00
	-2.00	-141.00	24.00	60.00	18.00	5.00	1.00
	3.00	-263.00	43.00	93.00	23.00	-4.00	0.00
	0.00	-291.00	51.00	91.00	24.00	-9.00	0.00
	1.00	-270.00	44.00	59.00	25.00	-9.00	2.00
	7.00	-271.00	23.00	42.00	25.00	-6.00	4.00
	3.00	-183.00	27.00	-18.00	23.00	-4.00	6.00
	-3.00	-29.00	18.00	-62.00	17.00	6.00	8.00
	-7.00	153.00	-7.00	-76.00	11.00	18.00	8.00
	-4.00	178.00	4.00	-106.00	6.00	32.00	6.00
	-2.00	91.00	16.00	-135.00	3.00	37.00	7.00
	-9.00	40.00	27.00	-112.00	4.00	27.00	8.00
	-8.00	42.00	49.00	-85.00	-14.00	37.00	7.00
	-6.00	23.00	63.00	-61.00	-18.00	34.00	6.00
	-8.00	15.00	63.00	-41.00	-6.00	22.00	4.00
	-9.00	36.00	21.00	-15.00	-5.00	21.00	1.00
	3.00	76.00	-41.00	13.00	4.00	19.00	2.00
	6.00	99.00	-40.00	38.00	8.00	12.00	-2.00
	-3.00	116.00	-29.00	49.00	7.00	11.00	-3.00
	-5.00	143.00	3.00	54.00	6.00	11.00	-5.00
	-5.00	90.00	28.00	59.00	4.00	12.00	-7.00
	-9.00	-24.00	57.00	59.00	3.00	12.00	-8.00
	-8.00	-103.00	61.00	49.00	6.00	8.00	-9.00
	-6.00	-271.00	53.00	41.00	11.00	5.00	-10.00
	-5.00	-283.00	32.00	32.00	10.00	7.00	-4.00
	3.00	-161.00	26.00	19.00	15.00	6.00	8.00
	6.00	-107.00	24.00	21.00	18.00	5.00	9.00
	9.00	7.00	-23.00	3.00	19.00	0.00	10.00
	2.00	220.00	-43.00	-16.00	17.00	0.00	6.00
	4.00	371.00	-13.00	-17.00	17.00	3.00	2.00
	1.00	379.00	31.00	-32.00	12.00	10.00	0.00
	-12.00	283.00	74.00	-38.00	4.00	19.00	1.00
	-9.00	155.00	84.00	-24.00	9.00	18.00	-1.00
	-4.00	78.00	62.00	-14.00	11.00	12.00	-4.00
	7.00	7.00	31.00	3.00	14.00	14.00	-3.00
	9.00	-55.00	2.00	27.00	12.00	16.00	-2.00
	5.00	-45.00	-2.00	29.00	13.00	16.00	-3.00
	8.00	18.00	1.00	30.00	9.00	18.00	-2.00
	5.00	34.00	-18.00	25.00	12.00	18.00	-3.00
	0.00	8.00	-35.00	19.00	15.00	14.00	-5.00
	-3.00	86.00	-44.00	21.00	10.00	15.00	-4.00
	-1.00	160.00	-92.00	54.00	3.00	15.00	-4.00
	1.00	176.00	-126.00	82.00	6.00	11.00	-4.00
	-1.00	133.00	-106.00	67.00	12.00	3.00	-2.00
	0.00	-61.00	-82.00	47.00	17.00	-8.00	0.00
	-1.00	-244.00	-46.00	-3.00	18.00	-17.00	1.00
	-2.00	-471.00	-12.00	-31.00	20.00	-23.00	1.00
	-4.00	-508.00	2.00	-8.00	23.00	-22.00	3.00
	-4.00	-309.00	27.00	-6.00	23.00	-18.00	1.00
	-8.00	-56.00	36.00	-6.00	20.00	-16.00	1.00
	-11.00	212.00	22.00	23.00	16.00	-15.00	-1.00
	-5.00	345.00	34.00	12.00	-4.00	0.00	2.00
	-9.00	351.00	25.00	-4.00	-10.00	0.00	-1.00
	-9.00	254.00	0.00	6.00	6.00	-10.00	-1.00
	-7.00	112.00	-65.00	14.00	15.00	-13.00	-2.00
	-4.00	6.00	-88.00	15.00	17.00	-12.00	-1.00
	3.00	57.00	-57.00	-7.00	16.00	-12.00	-3.00
	2.00	98.00	-1.00	-32.00	10.00	-7.00	-2.00
	-2.00	117.00	36.00	-49.00	9.00	4.00	-1.00
	3.00	130.00	75.00	-64.00	10.00	8.00	-1.00
	1.00	117.00	98.00	-66.00	8.00	13.00	0.00
	-2.00	2.00	115.00	-57.00	7.00	17.00	-1.00
	5.00	-50.00	130.00	-29.00	6.00	15.00	0.00
	9.00	-69.00	116.00	18.00	10.00	11.00	-1.00
	11.00	-74.00	68.00	69.00	14.00	11.00	0.00
	14.00	7.00	15.00	64.00	11.00	11.00	0.00
	2.00	115.00	-23.00	36.00	8.00	12.00	0.00
	-6.00	90.00	-48.00	15.00	4.00	10.00	0.00
	1.00	-125.00	-59.00	5.00	5.00	11.00	1.00
	1.00	-394.00	-52.00	-15.00	3.00	6.00	-1.00
	-3.00	-467.00	-55.00	-9.00	9.00	3.00	-2.00
	1.00	-353.00	-44.00	10.00	10.00	2.00	0.00
	0.00	-179.00	-15.00	18.00	8.00	3.00	-1.00
	-9.00	84.00	-12.00	36.00	7.00	5.00	-4.00
	-14.00	338.00	-1.00	43.00	8.00	4.00	-4.00
	-3.00	466.00	-6.00	50.00	10.00	8.00	-5.00
	-3.00	390.00	-32.00	35.00	11.00	12.00	-5.00
	5.00	186.00	-52.00	19.00	13.00	17.00	-5.00
	6.00	-123.00	-46.00	8.00	12.00	19.00	-6.00
	1.00	-321.00	-37.00	17.00	13.00	19.00	-5.00
	7.00	-326.00	-40.00	33.00	16.00	19.00	-5.00
	13.00	-230.00	-57.00	58.00	16.00	19.00	-1.00
	9.00	-15.00	-40.00	65.00	13.00	18.00	-2.00
	17.00	61.00	-25.00	19.00	15.00	19.00	1.00
	12.00	87.00	-7.00	0.00	17.00	18.00	4.00
	7.00	125.00	32.00	-30.00	17.00	13.00	3.00
	7.00	185.00	64.00	-50.00	14.00	14.00	3.00
	-4.00	227.00	66.00	-24.00	11.00	13.00	3.00
	-13.00	240.00	47.00	-26.00	17.00	11.00	4.00
	-11.00	293.00	42.00	-26.00	21.00	13.00	3.00
	-4.00	228.00	39.00	-13.00	19.00	13.00	2.00
	-1.00	42.00	45.00	-2.00	-6.00	29.00	1.00
	7.00	-122.00	8.00	4.00	-15.00	34.00	3.00
	1.00	-192.00	-85.00	-8.00	-1.00	19.00	-2.00
	-4.00	-97.00	-87.00	1.00	7.00	18.00	-2.00
	-8.00	-10.00	-72.00	36.00	6.00	23.00	0.00
	-14.00	75.00	-23.00	35.00	2.00	26.00	0.00
	-14.00	171.00	3.00	23.00	5.00	22.00	-4.00
	-7.00	182.00	21.00	42.00	8.00	22.00	-3.00
	-4.00	79.00	61.00	20.00	10.00	22.00	-3.00
	-7.00	27.00	85.00	1.00	15.00	16.00	-3.00
	-6.00	38.00	88.00	-6.00	17.00	14.00	-1.00
	-8.00	0.00	77.00	6.00	15.00	11.00	-2.00
	-10.00	-55.00	70.00	25.00	14.00	9.00	-2.00
	-13.00	-83.00	71.00	17.00	16.00	9.00	2.00
	-14.00	-108.00	44.00	8.00	13.00	7.00	1.00
	-16.00	-104.00	29.00	11.00	12.00	10.00	3.00
	-11.00	-67.00	2.00	16.00	14.00	9.00	4.00
	-4.00	-108.00	-31.00	13.00	13.00	12.00	3.00
	-5.00	-185.00	-53.00	3.00	9.00	16.00	3.00
	-5.00	-211.00	-40.00	-13.00	12.00	12.00	2.00
	3.00	-146.00	-28.00	-23.00	13.00	11.00	1.00
	4.00	-56.00	-45.00	-27.00	13.00	12.00	-1.00
	-1.00	39.00	-50.00	-29.00	15.00	11.00	-2.00
	0.00	88.00	-36.00	-13.00	17.00	8.00	-3.00
	0.00	16.00	-6.00	41.00	22.00	8.00	-3.00
	0.00	-21.00	32.00	47.00	16.00	16.00	-3.00
	0.00	-23.00	59.00	21.00	12.00	19.00	-1.00
	1.00	1.00	69.00	-2.00	14.00	14.00	-2.00
	-2.00	47.00	77.00	-45.00	21.00	11.00	-2.00
	1.00	123.00	40.00	-36.00	20.00	9.00	-4.00
	-1.00	159.00	24.00	-25.00	16.00	9.00	-4.00
	3.00	96.00	12.00	-14.00	12.00	15.00	-1.00
	3.00	25.00	7.00	-2.00	9.00	15.00	1.00
	-3.00	2.00	15.00	10.00	0.00	20.00	2.00
	-3.00	10.00	31.00	15.00	-23.00	34.00	5.00
	-8.00	13.00	43.00	28.00	-13.00	26.00	4.00
	-7.00	-18.00	-7.00	39.00	4.00	12.00	2.00
	-9.00	-12.00	-57.00	42.00	7.00	8.00	3.00
	-4.00	14.00	-61.00	34.00	9.00	8.00	1.00
	-5.00	-35.00	-71.00	32.00	11.00	8.00	1.00
	-4.00	-146.00	-83.00	31.00	11.00	7.00	0.00
	4.00	-181.00	-52.00	30.00	17.00	4.00	0.00
	2.00	-272.00	22.00	5.00	20.00	3.00	0.00
	1.00	-224.00	48.00	-4.00	22.00	3.00	-1.00
	11.00	-87.00	27.00	8.00	22.00	5.00	-2.00
	14.00	107.00	-1.00	13.00	20.00	5.00	-3.00
	13.00	178.00	-10.00	46.00	18.00	7.00	-2.00
	10.00	179.00	-31.00	76.00	8.00	7.00	-2.00
	-3.00	230.00	-21.00	66.00	3.00	8.00	-2.00
	-2.00	261.00	-13.00	45.00	11.00	6.00	-2.00
	5.00	268.00	-8.00	33.00	17.00	3.00	-2.00
	-3.00	187.00	21.00	2.00	15.00	2.00	-2.00
	-11.00	-61.00	34.00	-22.00	14.00	-2.00	-1.00
	-9.00	-217.00	40.00	-39.00	16.00	-3.00	-1.00
	-4.00	-118.00	36.00	-52.00	15.00	1.00	0.00
	-1.00	17.00	-2.00	-53.00	12.00	8.00	3.00
	-1.00	93.00	-35.00	-35.00	13.00	8.00	5.00
	-1.00	210.00	-44.00	-17.00	12.00	2.00	4.00
	-4.00	310.00	-58.00	-17.00	14.00	-1.00	3.00
	-7.00	318.00	-44.00	12.00	15.00	0.00	4.00
	-7.00	245.00	-23.00	38.00	15.00	6.00	4.00
	-4.00	238.00	6.00	27.00	11.00	5.00	0.00
	-1.00	231.00	42.00	5.00	12.00	5.00	-1.00
	-3.00	140.00	45.00	4.00	15.00	1.00	-3.00
	6.00	-71.00	50.00	-12.00	23.00	-2.00	-3.00
	8.00	-215.00	33.00	-26.00	25.00	-2.00	-5.00
	9.00	-239.00	14.00	-36.00	18.00	6.00	-3.00
	14.00	-270.00	-7.00	-35.00	10.00	20.00	0.00
	19.00	-241.00	-22.00	-16.00	4.00	26.00	-2.00
	18.00	-185.00	-13.00	-15.00	0.00	23.00	1.00
	14.00	-24.00	12.00	-13.00	1.00	14.00	-1.00
	8.00	47.00	13.00	37.00	10.00	5.00	-3.00
	4.00	15.00	23.00	22.00	12.00	4.00	-3.00
	2.00	-21.00	33.00	-23.00	18.00	1.00	0.00
	-4.00	58.00	19.00	4.00	18.00	0.00	2.00
	-6.00	233.00	1.00	27.00	18.00	1.00	4.00
	-4.00	306.00	0.00	11.00	14.00	0.00	4.00
	-3.00	248.00	-6.00	1.00	10.00	3.00	4.00
	0.00	141.00	-19.00	8.00	-10.00	22.00	4.00
	5.00	39.00	-21.00	1.00	-24.00	35.00	5.00
	-1.00	-3.00	-30.00	12.00	-6.00	18.00	2.00
	-2.00	-29.00	-18.00	19.00	7.00	6.00	0.00
	-3.00	-103.00	2.00	18.00	12.00	2.00	-1.00
	-3.00	-217.00	-25.00	26.00	16.00	1.00	-2.00
	-9.00	-264.00	-30.00	24.00	11.00	5.00	-3.00
	-11.00	-238.00	-59.00	15.00	15.00	4.00	-5.00
	-4.00	-219.00	-104.00	11.00	21.00	3.00	-1.00
	-18.00	-119.00	-90.00	2.00	15.00	-5.00	-8.00
	-14.00	36.00	-49.00	8.00	20.00	0.00	-5.00
	-3.00	109.00	3.00	13.00	22.00	0.00	-5.00
	1.00	155.00	40.00	20.00	25.00	-2.00	-5.00
	1.00	135.00	75.00	5.00	25.00	-2.00	-3.00
	1.00	176.00	119.00	8.00	25.00	-1.00	-2.00
	7.00	210.00	136.00	20.00	19.00	5.00	-1.00
	4.00	210.00	142.00	11.00	9.00	14.00	2.00
	-1.00	169.00	126.00	19.00	18.00	13.00	2.00
	0.00	73.00	100.00	27.00	16.00	10.00	1.00
	-5.00	10.00	57.00	33.00	7.00	17.00	5.00
	-14.00	16.00	-10.00	31.00	0.00	16.00	3.00
	-22.00	38.00	-38.00	38.00	7.00	12.00	3.00
	-32.00	-11.00	-31.00	49.00	9.00	9.00	2.00
	-39.00	-45.00	-31.00	68.00	11.00	6.00	1.00
	-39.00	-51.00	-9.00	67.00	13.00	3.00	0.00
	-41.00	-134.00	6.00	39.00	12.00	5.00	-4.00
	-39.00	-214.00	13.00	13.00	9.00	5.00	-4.00
	-36.00	-181.00	-42.00	-13.00	9.00	8.00	-4.00
	-38.00	-145.00	-94.00	-35.00	10.00	9.00	-4.00
	-38.00	-100.00	-99.00	-48.00	9.00	8.00	-7.00
	-27.00	-27.00	-98.00	-39.00	7.00	14.00	-9.00
	-12.00	-79.00	-61.00	-24.00	4.00	19.00	-5.00
	-3.00	-128.00	-21.00	-21.00	4.00	21.00	-3.00
	-2.00	-53.00	27.00	-23.00	1.00	24.00	-1.00
	4.00	-12.00	76.00	-9.00	6.00	18.00	1.00
	10.00	7.00	107.00	-4.00	6.00	11.00	0.00
	15.00	63.00	103.00	-9.00	5.00	11.00	2.00
	21.00	158.00	78.00	3.00	0.00	15.00	0.00
	34.00	198.00	40.00	8.00	-1.00	14.00	1.00
	49.00	165.00	5.00	4.00	-2.00	13.00	2.00
	63.00	119.00	-10.00	0.00	-5.00	12.00	0.00
	89.00	54.00	-18.00	8.00	-4.00	12.00	2.00
	103.00	26.00	-23.00	19.00	-3.00	11.00	2.00
	105.00	-17.00	-16.00	17.00	-2.00	8.00	0.00
	117.00	3.00	-2.00	11.00	1.00	7.00	1.00
	129.00	18.00	7.00	8.00	3.00	11.00	0.00
	136.00	44.00	10.00	11.00	9.00	11.00	0.00
	151.00	73.00	21.00	17.00	12.00	11.00	0.00
	152.00	65.00	9.00	32.00	16.00	6.00	-4.00
	151.00	72.00	0.00	54.00	22.00	5.00	-4.00
	151.00	60.00	-4.00	35.00	27.00	8.00	-2.00
	153.00	49.00	-13.00	14.00	30.00	10.00	-1.00
	146.00	34.00	-17.00	-23.00	34.00	12.00	-4.00
	145.00	9.00	-23.00	-72.00	43.00	13.00	3.00
	132.00	-7.00	-40.00	-48.00	48.00	13.00	4.00
	117.00	-40.00	-60.00	-31.00	48.00	21.00	4.00
	102.00	-59.00	-60.00	-27.00	57.00	24.00	6.00
	88.00	-56.00	-47.00	-20.00	72.00	20.00	3.00
	71.00	-41.00	-32.00	4.00	67.00	21.00	4.00
	33.00	-46.00	-26.00	19.00	47.00	31.00	7.00
	-14.00	-29.00	-37.00	33.00	57.00	15.00	5.00
	-60.00	-35.00	-50.00	50.00	63.00	6.00	4.00
	-104.00	-69.00	-41.00	58.00	55.00	3.00	3.00
	-142.00	-143.00	-29.00	60.00	41.00	8.00	-1.00
	-176.00	-129.00	-51.00	56.00	35.00	5.00	-4.00
	-205.00	-105.00	-76.00	52.00	33.00	3.00	-2.00
	-225.00	-62.00	-60.00	45.00	24.00	0.00	-4.00
	-236.00	5.00	-29.00	32.00	15.00	-3.00	-5.00
	-241.00	40.00	5.00	22.00	9.00	0.00	4.00
	-242.00	8.00	22.00	25.00	4.00	0.00	7.00
	-250.00	-143.00	58.00	20.00	-1.00	-6.00	5.00
	-255.00	-179.00	89.00	19.00	-4.00	-9.00	2.00
	-249.00	-79.00	87.00	15.00	-10.00	-12.00	-4.00
	-238.00	41.00	84.00	9.00	-12.00	-11.00	-2.00
	-234.00	190.00	76.00	14.00	-14.00	-11.00	-4.00
	-219.00	317.00	65.00	16.00	-16.00	-14.00	-2.00
	-197.00	332.00	41.00	17.00	-16.00	-15.00	2.00
	-180.00	215.00	27.00	4.00	-21.00	-15.00	3.00
	-159.00	116.00	13.00	-5.00	-26.00	-9.00	1.00
	-139.00	44.00	0.00	-25.00	-29.00	-3.00	2.00
	-114.00	19.00	-3.00	-41.00	-26.00	-1.00	1.00
	-95.00	23.00	-1.00	-41.00	-24.00	12.00	1.00
	-76.00	0.00	-6.00	-29.00	-25.00	27.00	1.00
	-58.00	-9.00	-18.00	-22.00	-18.00	27.00	0.00
	-38.00	-11.00	-24.00	-17.00	-12.00	20.00	-1.00
	-15.00	-7.00	-9.00	-6.00	-8.00	11.00	-1.00
	1.00	-16.00	18.00	9.00	-4.00	5.00	-3.00
	16.00	-107.00	32.00	21.00	-2.00	1.00	-3.00
	32.00	-149.00	42.00	39.00	0.00	1.00	-2.00
	53.00	-271.00	36.00	11.00	0.00	3.00	-3.00
	67.00	-305.00	21.00	-12.00	0.00	4.00	-4.00
	76.00	-113.00	29.00	-21.00	5.00	3.00	-3.00
	80.00	109.00	40.00	-33.00	4.00	2.00	-3.00
	86.00	267.00	39.00	-52.00	2.00	2.00	-4.00
	90.00	337.00	24.00	-50.00	3.00	8.00	-2.00
	95.00	281.00	10.00	14.00	3.00	11.00	1.00
	105.00	211.00	-17.00	59.00	9.00	6.00	0.00
	103.00	84.00	-27.00	61.00	16.00	7.00	1.00
	101.00	68.00	-21.00	71.00	21.00	5.00	3.00
	103.00	83.00	-12.00	54.00	23.00	-3.00	1.00
	104.00	93.00	12.00	-2.00	27.00	-6.00	2.00
	100.00	152.00	4.00	-17.00	27.00	-4.00	3.00
	93.00	187.00	0.00	-33.00	29.00	0.00	4.00
	93.00	188.00	3.00	-42.00	27.00	6.00	2.00
	86.00	180.00	-2.00	-50.00	24.00	9.00	2.00
	79.00	190.00	-37.00	-46.00	7.00	26.00	2.00
	77.00	134.00	-51.00	-60.00	-6.00	35.00	-1.00
	75.00	51.00	-42.00	-56.00	6.00	22.00	-2.00
	69.00	6.00	-28.00	-27.00	12.00	21.00	-2.00
	66.00	-27.00	-23.00	11.00	12.00	21.00	-4.00
	61.00	-41.00	-2.00	26.00	16.00	20.00	-4.00
	55.00	-68.00	28.00	35.00	19.00	19.00	-3.00
	55.00	-94.00	40.00	45.00	22.00	16.00	-2.00
	53.00	-140.00	46.00	47.00	20.00	15.00	-2.00
	47.00	-176.00	62.00	51.00	21.00	15.00	0.00
	41.00	-178.00	60.00	45.00	21.00	12.00	0.00
	39.00	-203.00	44.00	33.00	26.00	10.00	1.00
	33.00	-307.00	23.00	34.00	27.00	12.00	3.00
	30.00	-313.00	6.00	40.00	26.00	15.00	3.00
	27.00	-247.00	4.00	35.00	18.00	20.00	4.00
	24.00	-192.00	19.00	13.00	5.00	24.00	4.00
	19.00	-48.00	9.00	6.00	17.00	16.00	4.00
	13.00	89.00	-1.00	12.00	21.00	13.00	2.00
	5.00	195.00	-58.00	18.00	19.00	14.00	2.00
	1.00	259.00	-84.00	16.00	20.00	13.00	0.00
	2.00	251.00	-65.00	6.00	20.00	10.00	-1.00
	2.00	176.00	-29.00	-10.00	20.00	9.00	-3.00
	1.00	104.00	-8.00	-2.00	19.00	11.00	-4.00
	1.00	60.00	17.00	5.00	20.00	14.00	-4.00
	2.00	48.00	38.00	11.00	17.00	15.00	-4.00
	8.00	-9.00	49.00	14.00	17.00	13.00	-3.00
	7.00	-86.00	44.00	14.00	17.00	12.00	-3.00
	0.00	-153.00	19.00	13.00	14.00	11.00	0.00
	-4.00	-107.00	11.00	13.00	11.00	11.00	1.00
	-8.00	-49.00	0.00	-5.00	9.00	13.00	3.00
	-10.00	54.00	-12.00	-17.00	9.00	12.00	3.00
	-5.00	157.00	-16.00	-9.00	8.00	12.00	4.00
	-3.00	189.00	-20.00	-8.00	6.00	11.00	6.00
	-6.00	150.00	-13.00	-6.00	9.00	11.00	5.00
	-10.00	113.00	-8.00	4.00	7.00	9.00	4.00
	-12.00	74.00	-5.00	18.00	9.00	11.00	3.00
	-6.00	34.00	-10.00	24.00	11.00	8.00	1.00
	-3.00	21.00	-27.00	23.00	8.00	8.00	2.00
	-10.00	5.00	-31.00	28.00	6.00	6.00	3.00
	-12.00	4.00	-22.00	40.00	6.00	8.00	3.00
	-13.00	-15.00	-14.00	37.00	5.00	9.00	0.00
	-10.00	-41.00	-9.00	29.00	9.00	9.00	0.00
	-9.00	-61.00	-13.00	26.00	5.00	6.00	-2.00
	-9.00	-82.00	-20.00	21.00	3.00	6.00	-2.00
	-11.00	-95.00	-26.00	36.00	4.00	6.00	-3.00
	-12.00	-84.00	-40.00	67.00	3.00	5.00	-4.00
	-8.00	-99.00	-41.00	69.00	2.00	5.00	-4.00
	-12.00	-137.00	-20.00	56.00	2.00	8.00	-3.00
	-15.00	-226.00	1.00	16.00	3.00	8.00	-3.00
	-16.00	-229.00	35.00	-41.00	10.00	6.00	-1.00
	-18.00	-126.00	43.00	-33.00	12.00	6.00	0.00
	-25.00	-21.00	68.00	-38.00	12.00	9.00	2.00
	-26.00	118.00	70.00	-40.00	11.00	14.00	3.00
	-27.00	200.00	64.00	-41.00	8.00	16.00	4.00
	-23.00	230.00	65.00	-32.00	-5.00	24.00	5.00
	-12.00	135.00	65.00	5.00	-18.00	27.00	5.00
	-2.00	26.00	45.00	12.00	0.00	15.00	4.00
	2.00	25.00	3.00	17.00	9.00	5.00	2.00
	0.00	101.00	-39.00	13.00	10.00	1.00	-1.00
	-3.00	148.00	-88.00	6.00	12.00	-1.00	-1.00
	-10.00	139.00	-101.00	-15.00	11.00	-2.00	-2.00
	-21.00	192.00	-90.00	-15.00	7.00	-3.00	-5.00
	-16.00	229.00	-61.00	-12.00	2.00	2.00	-5.00
	-20.00	178.00	-37.00	-29.00	-5.00	18.00	-4.00
	-14.00	137.00	2.00	-54.00	-2.00	26.00	-4.00
	-10.00	101.00	45.00	-77.00	7.00	20.00	-3.00
	-10.00	61.00	69.00	-63.00	13.00	5.00	-2.00
	-1.00	1.00	64.00	-56.00	21.00	0.00	-1.00
	8.00	-44.00	34.00	-32.00	24.00	-3.00	2.00
	3.00	-76.00	-7.00	-3.00	23.00	-2.00	2.00
	1.00	-90.00	-66.00	25.00	18.00	1.00	3.00
	1.00	-70.00	-64.00	72.00	10.00	7.00	4.00
	-1.00	-99.00	-50.00	88.00	13.00	8.00	2.00
	-5.00	-111.00	-8.00	75.00	21.00	11.00	-2.00
	-3.00	-111.00	18.00	70.00	23.00	19.00	0.00
	-5.00	-92.00	60.00	23.00	27.00	18.00	3.00
	-6.00	-31.00	110.00	-24.00	32.00	7.00	3.00
	-7.00	26.00	113.00	-12.00	35.00	3.00	4.00
	-9.00	54.00	114.00	-14.00	32.00	3.00	2.00
	-4.00	18.00	89.00	-11.00	29.00	4.00	3.00
	-1.00	-3.00	56.00	-8.00	24.00	7.00	2.00
	-1.00	-12.00	24.00	-4.00	1.00	23.00	3.00
	-1.00	-11.00	-11.00	3.00	-10.00	30.00	2.00
	-5.00	-5.00	-39.00	26.00	5.00	20.00	-1.00
	-2.00	-56.00	-39.00	40.00	13.00	12.00	-3.00
	1.00	-39.00	-29.00	44.00	18.00	10.00	-1.00
	-1.00	20.00	-20.00	38.00	19.00	7.00	0.00
	0.00	51.00	-16.00	29.00	19.00	8.00	0.00
	3.00	54.00	-29.00	25.00	21.00	7.00	0.00
	3.00	85.00	-34.00	30.00	22.00	7.00	1.00
	2.00	105.00	-49.00	28.00	18.00	8.00	1.00
	-3.00	86.00	-53.00	32.00	17.00	10.00	4.00
	-2.00	68.00	-46.00	22.00	12.00	12.00	3.00
	-3.00	65.00	-30.00	19.00	7.00	12.00	3.00
	-5.00	19.00	-19.00	25.00	9.00	9.00	3.00
	-3.00	-24.00	-7.00	22.00	10.00	9.00	2.00
	-2.00	-29.00	0.00	17.00	12.00	7.00	1.00
	2.00	-18.00	8.00	14.00	11.00	5.00	2.00
	-2.00	14.00	9.00	9.00	12.00	6.00	3.00
	-5.00	25.00	19.00	3.00	10.00	5.00	1.00
	-5.00	26.00	28.00	-3.00	9.00	8.00	2.00
	-3.00	12.00	28.00	-17.00	10.00	8.00	2.00
	-4.00	-6.00	23.00	-20.00	9.00	11.00	0.00
	-2.00	-18.00	17.00	-11.00	9.00	13.00	3.00
	6.00	-46.00	-12.00	6.00	10.00	13.00	4.00
	4.00	-79.00	-23.00	16.00	6.00	11.00	-1.00
	6.00	-99.00	-25.00	15.00	7.00	12.00	0.00
	1.00	-77.00	-25.00	7.00	9.00	10.00	2.00
	-2.00	-48.00	-12.00	4.00	10.00	11.00	4.00
	-5.00	-52.00	11.00	-7.00	13.00	11.00	5.00
	-9.00	42.00	29.00	-16.00	11.00	10.00	2.00
	-12.00	110.00	41.00	-13.00	12.00	10.00	4.00
	-3.00	115.00	43.00	-9.00	11.00	7.00	3.00
	2.00	90.00	40.00	-13.00	12.00	7.00	3.00
	1.00	33.00	40.00	-8.00	12.00	5.00	2.00
	7.00	-2.00	28.00	15.00	13.00	6.00	4.00
	15.00	26.00	2.00	52.00	13.00	5.00	3.00
	18.00	10.00	-16.00	72.00	12.00	3.00	4.00
	8.00	51.00	-39.00	87.00	16.00	2.00	4.00
	4.00	102.00	-41.00	57.00	11.00	4.00	2.00
	-1.00	118.00	-38.00	27.00	9.00	3.00	-1.00
	-2.00	97.00	-17.00	-8.00	10.00	6.00	-1.00
	-1.00	79.00	-22.00	-83.00	13.00	4.00	1.00
	-7.00	15.00	-59.00	-91.00	11.00	2.00	-2.00
	-5.00	-45.00	-46.00	-75.00	12.00	8.00	-1.00
	-10.00	-39.00	-10.00	-43.00	9.00	13.00	-1.00
	-11.00	15.00	21.00	-39.00	7.00	17.00	-1.00
	-5.00	63.00	47.00	-25.00	-3.00	23.00	0.00
	-3.00	64.00	87.00	-28.00	-21.00	32.00	2.00
	-1.00	41.00	98.00	-22.00	-9.00	21.00	3.00
	1.00	14.00	83.00	-4.00	3.00	12.00	2.00
	-4.00	-61.00	49.00	11.00	7.00	8.00	1.00
	-7.00	-43.00	24.00	29.00	6.00	9.00	3.00
	-4.00	14.00	-11.00	56.00	3.00	13.00	3.00
	-4.00	14.00	-39.00	72.00	-2.00	18.00	6.00
	-8.00	27.00	-29.00	67.00	1.00	12.00	3.00
	-10.00	14.00	-15.00	62.00	7.00	8.00	1.00
	-9.00	20.00	3.00	43.00	11.00	6.00	1.00
	-11.00	8.00	16.00	33.00	12.00	3.00	2.00
	-8.00	-51.00	21.00	23.00	12.00	0.00	0.00
	-4.00	-78.00	19.00	19.00	12.00	-4.00	-2.00
	1.00	-80.00	10.00	21.00	12.00	-4.00	0.00
	2.00	-21.00	-1.00	22.00	12.00	-5.00	-3.00
	4.00	60.00	-16.00	25.00	11.00	-8.00	-2.00
	13.00	52.00	-31.00	11.00	14.00	-8.00	-3.00
	12.00	6.00	-36.00	5.00	15.00	-4.00	-5.00
	11.00	48.00	-38.00	10.00	17.00	1.00	-3.00
	-2.00	86.00	-21.00	-4.00	19.00	0.00	-2.00
	-8.00	35.00	-12.00	-15.00	17.00	1.00	-2.00
	-8.00	31.00	0.00	-16.00	18.00	2.00	0.00
	-4.00	48.00	2.00	-16.00	15.00	-3.00	1.00
	1.00	42.00	8.00	-26.00	13.00	-2.00	2.00
	4.00	-16.00	13.00	-27.00	12.00	1.00	1.00
	5.00	-8.00	12.00	-36.00	14.00	0.00	2.00
	-5.00	59.00	-4.00	-7.00	17.00	-1.00	3.00
	-3.00	63.00	-4.00	2.00	18.00	-6.00	2.00
	-6.00	59.00	15.00	-3.00	15.00	-6.00	1.00
	1.00	96.00	23.00	1.00	15.00	-5.00	-1.00
	9.00	102.00	18.00	13.00	19.00	-5.00	-2.00
	6.00	65.00	-11.00	10.00	21.00	-4.00	-2.00
	9.00	26.00	-36.00	10.00	18.00	4.00	-2.00
	-1.00	-44.00	-47.00	2.00	8.00	14.00	-1.00
	-4.00	-97.00	-86.00	16.00	5.00	13.00	-2.00
	-1.00	-67.00	-48.00	29.00	3.00	13.00	-2.00
	-1.00	-70.00	-2.00	54.00	3.00	13.00	-3.00
	-9.00	-47.00	38.00	65.00	7.00	11.00	-3.00
	-10.00	0.00	74.00	46.00	15.00	9.00	-3.00
	-4.00	-56.00	95.00	38.00	17.00	9.00	-2.00
	0.00	-139.00	120.00	3.00	18.00	9.00	-2.00
	1.00	-163.00	119.00	-48.00	22.00	10.00	0.00
	-3.00	-120.00	36.00	-20.00	20.00	13.00	1.00
	-4.00	-26.00	-17.00	-5.00	17.00	18.00	4.00
	4.00	85.00	-22.00	-11.00	17.00	21.00	7.00
	6.00	100.00	-8.00	-18.00	16.00	19.00	5.00
	4.00	112.00	9.00	-20.00	4.00	28.00	7.00
	9.00	119.00	42.00	-14.00	-12.00	44.00	8.00
	9.00	78.00	57.00	-3.00	1.00	36.00	6.00
	3.00	66.00	31.00	13.00	11.00	27.00	5.00
	4.00	51.00	-13.00	16.00	12.00	25.00	2.00
	3.00	40.00	-62.00	19.00	15.00	27.00	1.00
	5.00	34.00	-53.00	25.00	16.00	27.00	0.00
	6.00	44.00	-30.00	21.00	3.00	34.00	-1.00
	4.00	39.00	-15.00	-3.00	2.00	38.00	1.00
	-1.00	27.00	-8.00	-27.00	7.00	36.00	-1.00
	-3.00	13.00	-19.00	-16.00	11.00	35.00	-2.00
	-7.00	14.00	2.00	-4.00	14.00	33.00	0.00
	-6.00	22.00	14.00	7.00	16.00	32.00	1.00
	-3.00	32.00	24.00	19.00	20.00	28.00	1.00
	-1.00	43.00	35.00	30.00	19.00	27.00	1.00
	-2.00	-22.00	29.00	26.00	16.00	27.00	2.00
	0.00	-123.00	8.00	19.00	17.00	28.00	5.00
	0.00	-147.00	-23.00	17.00	15.00	25.00	6.00
	-1.00	-95.00	-22.00	17.00	16.00	19.00	6.00
	-1.00	-17.00	-19.00	16.00	17.00	15.00	4.00
	-1.00	12.00	-15.00	15.00	18.00	13.00	6.00
	-5.00	29.00	-18.00	5.00	16.00	11.00	5.00
	-3.00	42.00	-23.00	3.00	15.00	10.00	4.00
	-1.00	47.00	-17.00	7.00	17.00	12.00	8.00
	2.00	45.00	-1.00	11.00	17.00	9.00	5.00
	4.00	85.00	-4.00	18.00	15.00	8.00	2.00
	7.00	95.00	-5.00	23.00	14.00	9.00	2.00
	4.00	114.00	-21.00	20.00	13.00	10.00	1.00
	4.00	137.00	-73.00	24.00	12.00	9.00	0.00
	5.00	95.00	-81.00	36.00	9.00	8.00	-1.00
	10.00	40.00	-74.00	63.00	11.00	5.00	-4.00
	7.00	35.00	-57.00	89.00	14.00	2.00	-3.00
	8.00	33.00	-11.00	63.00	14.00	0.00	-3.00
	8.00	5.00	35.00	36.00	17.00	-1.00	-3.00
	2.00	-29.00	85.00	-15.00	15.00	-4.00	-3.00
	1.00	-40.00	136.00	-80.00	17.00	-4.00	0.00
	2.00	-33.00	130.00	-64.00	19.00	-3.00	2.00
	6.00	-9.00	91.00	-37.00	22.00	0.00	3.00
	1.00	-11.00	57.00	-26.00	15.00	6.00	4.00
	0.00	-134.00	10.00	-24.00	11.00	8.00	4.00
	-3.00	-228.00	-21.00	-21.00	-2.00	15.00	5.00
	-4.00	-208.00	-28.00	-26.00	-22.00	25.00	5.00
	-6.00	-182.00	-20.00	-9.00	-9.00	13.00	4.00
	-7.00	-112.00	-9.00	2.00	3.00	1.00	2.00
	-3.00	-56.00	-9.00	43.00	7.00	-6.00	1.00
	-7.00	67.00	-4.00	58.00	7.00	-11.00	0.00
	-8.00	201.00	-8.00	54.00	10.00	-11.00	2.00
	-9.00	205.00	-33.00	40.00	7.00	-13.00	-2.00
	-7.00	76.00	-29.00	21.00	9.00	-14.00	-2.00
	-7.00	32.00	-20.00	20.00	12.00	-14.00	-2.00
	-3.00	-12.00	-11.00	27.00	14.00	-15.00	-3.00
	-4.00	-33.00	16.00	3.00	15.00	-14.00	-4.00
	-12.00	27.00	48.00	-45.00	9.00	-8.00	-3.00
	-10.00	81.00	49.00	-58.00	6.00	-5.00	-1.00
	-7.00	184.00	48.00	-49.00	8.00	-2.00	1.00
	-2.00	271.00	35.00	-51.00	13.00	2.00	5.00
	-4.00	288.00	16.00	-41.00	14.00	-2.00	4.00
	1.00	206.00	-8.00	-13.00	9.00	-4.00	6.00
	6.00	110.00	-23.00	5.00	8.00	-4.00	6.00
	3.00	33.00	-34.00	9.00	11.00	-12.00	2.00
	4.00	-41.00	-54.00	31.00	14.00	-15.00	1.00
	7.00	-95.00	-77.00	67.00	18.00	-18.00	3.00
	6.00	-34.00	-80.00	71.00	22.00	-22.00	4.00
	1.00	42.00	-71.00	47.00	25.00	-21.00	2.00
	-13.00	117.00	-36.00	14.00	23.00	-20.00	4.00
