4.00	189.00	-77.00	63.00	5.00	11.00	-3.00
16.00	154.00	52.00	62.00	2.00	6.00	-9.00
9.00	70.00	99.00	61.00	42.00	10.00	-8.00
14.00	-7.00	150.00	58.00	57.00	11.00	-4.00
19.00	-48.00	128.00	21.00	53.00	11.00	-7.00
22.00	-58.00	54.00	7.00	36.00	11.00	-13.00
29.00	-63.00	-23.00	14.00	21.00	7.00	-10.00
39.00	-68.00	-97.00	-29.00	8.00	7.00	-9.00
32.00	-34.00	-162.00	-44.00	3.00	8.00	-6.00
45.00	-16.00	-159.00	3.00	-1.00	1.00	-3.00
54.00	-34.00	-55.00	5.00	-22.00	-5.00	3.00
30.00	-47.00	-4.00	-37.00	-41.00	-4.00	1.00
5.00	-40.00	-22.00	-115.00	-45.00	6.00	6.00
-6.00	15.00	-10.00	-131.00	-28.00	33.00	9.00
-32.00	31.00	28.00	-71.00	-11.00	29.00	11.00
-33.00	54.00	-26.00	-112.00	-9.00	15.00	7.00
-17.00	98.00	-63.00	-111.00	-7.00	6.00	-1.00
3.00	74.00	-46.00	-71.00	-25.00	9.00	-16.00
18.00	35.00	-5.00	4.00	-35.00	13.00	-12.00
14.00	24.00	1.00	28.00	-30.00	11.00	4.00
27.00	56.00	-13.00	8.00	-21.00	4.00	17.00
28.00	59.00	-1.00	-33.00	-19.00	9.00	22.00
34.00	37.00	-26.00	-13.00	-6.00	17.00	21.00
29.00	-45.00	-51.00	11.00	15.00	21.00	26.00
32.00	-60.00	-31.00	43.00	32.00	8.00	35.00
35.00	-37.00	-4.00	42.00	53.00	21.00	25.00
41.00	-6.00	22.00	64.00	57.00	5.00	14.00
42.00	29.00	29.00	112.00	49.00	11.00	3.00
55.00	19.00	52.00	105.00	49.00	25.00	-6.00
59.00	-46.00	51.00	73.00	58.00	31.00	-7.00
62.00	-89.00	59.00	26.00	55.00	17.00	0.00
58.00	-90.00	46.00	25.00	48.00	-15.00	3.00
49.00	-42.00	96.00	120.00	38.00	-19.00	1.00
31.00	54.00	49.00	136.00	31.00	-6.00	-11.00
12.00	90.00	-19.00	91.00	18.00	-14.00	-7.00
-6.00	138.00	-50.00	36.00	24.00	-24.00	1.00
-11.00	138.00	-35.00	-38.00	32.00	-5.00	-2.00
-11.00	90.00	-46.00	-128.00	38.00	31.00	-4.00
-21.00	89.00	-65.00	-193.00	33.00	28.00	3.00
-33.00	75.00	-12.00	-207.00	31.00	13.00	10.00
-41.00	39.00	14.00	-167.00	26.00	11.00	15.00
-30.00	35.00	56.00	-169.00	21.00	16.00	20.00
-8.00	9.00	85.00	-58.00	10.00	23.00	15.00
-14.00	-48.00	108.00	49.00	-5.00	16.00	14.00
-25.00	-98.00	114.00	86.00	-20.00	17.00	1.00
-24.00	-127.00	82.00	144.00	-20.00	8.00	-15.00
-12.00	-141.00	48.00	184.00	-20.00	9.00	-14.00
-19.00	-111.00	-14.00	180.00	-19.00	10.00	-10.00
-33.00	-36.00	-55.00	142.00	-9.00	22.00	-11.00
-38.00	29.00	-94.00	40.00	-6.00	13.00	-21.00
-28.00	101.00	-89.00	-66.00	-14.00	10.00	-22.00
-13.00	117.00	-12.00	-88.00	-7.00	9.00	-11.00
5.00	87.00	6.00	-112.00	-13.00	7.00	-11.00
15.00	56.00	58.00	-95.00	-5.00	10.00	-12.00
7.00	-23.00	106.00	-29.00	11.00	7.00	-4.00
22.00	-56.00	118.00	25.00	18.00	17.00	10.00
48.00	-82.00	61.00	48.00	12.00	0.00	21.00
45.00	-48.00	41.00	82.00	54.00	6.00	26.00
30.00	8.00	-56.00	94.00	74.00	24.00	26.00
15.00	47.00	-144.00	120.00	73.00	16.00	7.00
8.00	30.00	-128.00	108.00	62.00	6.00	-3.00
3.00	40.00	-46.00	65.00	47.00	4.00	-6.00
3.00	84.00	7.00	67.00	27.00	5.00	-21.00
1.00	120.00	31.00	41.00	17.00	1.00	-18.00
-11.00	94.00	38.00	-34.00	0.00	-1.00	-6.00
-17.00	65.00	101.00	-12.00	-19.00	10.00	-1.00
-39.00	64.00	82.00	34.00	-31.00	9.00	-4.00
-52.00	53.00	29.00	41.00	-51.00	-7.00	-11.00
-38.00	23.00	-41.00	37.00	-43.00	1.00	-7.00
-25.00	15.00	-110.00	-30.00	-12.00	1.00	1.00
-12.00	17.00	-215.00	-61.00	12.00	10.00	11.00
14.00	-4.00	-182.00	-50.00	32.00	30.00	7.00
34.00	-40.00	-69.00	-57.00	38.00	37.00	8.00
42.00	-54.00	0.00	-105.00	17.00	19.00	10.00
27.00	-34.00	26.00	-147.00	4.00	16.00	2.00
7.00	20.00	57.00	-107.00	11.00	9.00	-3.00
-11.00	32.00	92.00	-42.00	15.00	-9.00	2.00
-35.00	7.00	152.00	-23.00	6.00	-12.00	8.00
-50.00	22.00	136.00	-14.00	1.00	-28.00	6.00
-53.00	34.00	52.00	15.00	7.00	-8.00	8.00
-47.00	16.00	-42.00	29.00	-6.00	7.00	9.00
-64.00	41.00	-83.00	27.00	-1.00	24.00	5.00
-56.00	70.00	31.00	34.00	-9.00	21.00	-8.00
-36.00	78.00	109.00	72.00	-26.00	18.00	-12.00
-17.00	69.00	90.00	71.00	-22.00	36.00	-9.00
2.00	32.00	8.00	74.00	6.00	32.00	-1.00
13.00	-59.00	-62.00	26.00	15.00	18.00	11.00
27.00	-67.00	-122.00	-16.00	21.00	23.00	26.00
34.00	-39.00	-185.00	-39.00	22.00	16.00	13.00
26.00	-2.00	-161.00	-46.00	28.00	-5.00	3.00
39.00	39.00	-90.00	-13.00	15.00	-11.00	1.00
49.00	88.00	0.00	25.00	4.00	2.00	-19.00
65.00	89.00	27.00	34.00	5.00	18.00	-11.00
70.00	33.00	-1.00	68.00	4.00	15.00	-16.00
73.00	-31.00	10.00	84.00	3.00	28.00	-14.00
76.00	-92.00	41.00	69.00	11.00	33.00	-18.00
72.00	-104.00	76.00	59.00	14.00	16.00	-18.00
62.00	-77.00	118.00	17.00	20.00	0.00	-2.00
51.00	-59.00	116.00	36.00	18.00	-4.00	14.00
38.00	-43.00	123.00	86.00	9.00	-4.00	21.00
13.00	2.00	97.00	84.00	-3.00	-8.00	13.00
-11.00	49.00	56.00	51.00	-5.00	9.00	18.00
-13.00	82.00	45.00	25.00	3.00	27.00	16.00
-24.00	91.00	-5.00	-17.00	13.00	21.00	10.00
-25.00	85.00	1.00	-3.00	26.00	13.00	-15.00
-31.00	111.00	-8.00	-45.00	36.00	10.00	-24.00
-27.00	61.00	0.00	-55.00	45.00	22.00	-19.00
-20.00	-14.00	-72.00	-133.00	52.00	23.00	-6.00
-21.00	-141.00	-80.00	-95.00	37.00	-4.00	-6.00
-19.00	-192.00	-39.00	20.00	31.00	-12.00	-1.00
-27.00	-132.00	-23.00	67.00	27.00	-18.00	12.00
-30.00	-33.00	-2.00	57.00	36.00	-4.00	24.00
-36.00	96.00	35.00	41.00	35.00	17.00	43.00
-33.00	168.00	51.00	36.00	32.00	17.00	52.00
-39.00	178.00	56.00	2.00	22.00	13.00	46.00
-42.00	135.00	37.00	-55.00	9.00	15.00	24.00
-35.00	77.00	67.00	-75.00	7.00	25.00	9.00
-32.00	1.00	86.00	-16.00	18.00	23.00	-7.00
-25.00	-53.00	56.00	54.00	21.00	17.00	-13.00
-22.00	-79.00	34.00	77.00	17.00	19.00	-10.00
-17.00	-45.00	66.00	93.00	23.00	10.00	-15.00
-15.00	45.00	80.00	80.00	1.00	-19.00	-20.00
-21.00	133.00	42.00	29.00	5.00	-19.00	-16.00
-21.00	122.00	45.00	-22.00	-4.00	-7.00	-12.00
-12.00	63.00	37.00	-72.00	-8.00	-1.00	-4.00
-1.00	45.00	-66.00	-104.00	1.00	29.00	-1.00
8.00	30.00	-159.00	-124.00	-8.00	30.00	3.00
13.00	-4.00	-219.00	-60.00	-11.00	15.00	7.00
4.00	-10.00	-226.00	-39.00	-6.00	0.00	2.00
-5.00	-25.00	-170.00	-95.00	-4.00	-6.00	2.00
0.00	-18.00	-158.00	-99.00	-11.00	-5.00	-3.00
2.00	-42.00	-159.00	-47.00	-12.00	3.00	-8.00
12.00	-77.00	-55.00	3.00	-12.00	22.00	-5.00
22.00	-54.00	1.00	31.00	-7.00	19.00	-2.00
9.00	-7.00	42.00	109.00	3.00	10.00	7.00
10.00	25.00	79.00	154.00	34.00	12.00	8.00
15.00	-4.00	93.00	135.00	41.00	16.00	8.00
21.00	6.00	85.00	91.00	47.00	16.00	-5.00
27.00	86.00	47.00	19.00	43.00	-4.00	-13.00
20.00	120.00	51.00	-56.00	31.00	-7.00	-5.00
13.00	68.00	101.00	-59.00	16.00	6.00	3.00
18.00	-16.00	80.00	-80.00	5.00	21.00	4.00
20.00	-102.00	23.00	-77.00	2.00	28.00	-3.00
17.00	-112.00	17.00	8.00	-6.00	22.00	-5.00
-1.00	-91.00	16.00	63.00	-11.00	12.00	3.00
1.00	-63.00	5.00	34.00	-16.00	-5.00	9.00
7.00	11.00	-12.00	9.00	-3.00	-10.00	6.00
-1.00	97.00	-5.00	-7.00	9.00	-11.00	-1.00
-3.00	146.00	22.00	10.00	30.00	10.00	-5.00
-1.00	137.00	-24.00	-32.00	48.00	23.00	-10.00
4.00	143.00	-26.00	-57.00	45.00	14.00	-12.00
-4.00	131.00	-23.00	-15.00	28.00	-5.00	-15.00
-14.00	79.00	-9.00	71.00	9.00	-5.00	-15.00
-23.00	-1.00	15.00	133.00	23.00	5.00	-19.00
-20.00	-89.00	24.00	142.00	28.00	22.00	-13.00
-16.00	-149.00	19.00	98.00	27.00	30.00	-11.00
-23.00	-122.00	38.00	86.00	27.00	19.00	-3.00
-21.00	-77.00	48.00	54.00	11.00	-10.00	4.00
-21.00	11.00	44.00	-25.00	1.00	-2.00	23.00
-13.00	89.00	0.00	-112.00	9.00	29.00	44.00
1.00	110.00	-28.00	-86.00	0.00	20.00	54.00
7.00	76.00	-23.00	-33.00	-10.00	3.00	41.00
22.00	66.00	23.00	8.00	-13.00	-4.00	38.00
43.00	70.00	10.00	33.00	-19.00	-12.00	25.00
38.00	78.00	13.00	63.00	-22.00	-3.00	-5.00
32.00	21.00	63.00	62.00	0.00	23.00	-34.00
47.00	-67.00	69.00	74.00	17.00	34.00	-44.00
44.00	-75.00	0.00	67.00	29.00	23.00	-34.00
16.00	-44.00	-46.00	34.00	33.00	25.00	-15.00
6.00	-39.00	-66.00	-17.00	22.00	28.00	-5.00
-7.00	39.00	-51.00	-51.00	17.00	19.00	2.00
-24.00	96.00	-31.00	-48.00	22.00	4.00	6.00
-30.00	81.00	-55.00	-12.00	21.00	6.00	3.00
-34.00	41.00	-65.00	18.00	12.00	-2.00	-6.00
-40.00	50.00	-2.00	42.00	9.00	7.00	-1.00
-41.00	48.00	8.00	9.00	4.00	13.00	-1.00
-32.00	29.00	46.00	10.00	0.00	12.00	-3.00
-27.00	-16.00	80.00	2.00	-4.00	-1.00	-7.00
-6.00	-26.00	87.00	-2.00	-3.00	-9.00	-13.00
12.00	-50.00	58.00	23.00	17.00	0.00	-8.00
40.00	-97.00	4.00	18.00	42.00	12.00	-7.00
44.00	-90.00	-19.00	27.00	50.00	10.00	1.00
64.00	-14.00	-75.00	-30.00	51.00	17.00	5.00
68.00	34.00	-50.00	-29.00	53.00	7.00	-2.00
72.00	46.00	19.00	13.00	42.00	-5.00	2.00
48.00	88.00	13.00	-22.00	27.00	-5.00	3.00
29.00	83.00	-22.00	-85.00	8.00	5.00	12.00
13.00	59.00	29.00	-26.00	1.00	16.00	25.00
2.00	51.00	60.00	18.00	-6.00	20.00	19.00
-4.00	14.00	58.00	66.00	-15.00	13.00	16.00
-8.00	-9.00	87.00	77.00	-14.00	14.00	24.00
-8.00	3.00	68.00	59.00	-10.00	14.00	18.00
-11.00	26.00	34.00	54.00	-1.00	10.00	11.00
-11.00	30.00	-44.00	16.00	4.00	5.00	1.00
-10.00	32.00	-43.00	-8.00	11.00	3.00	-6.00
-10.00	-33.00	-61.00	-17.00	12.00	5.00	-10.00
-13.00	-104.00	-67.00	-27.00	3.00	-1.00	-11.00
-12.00	-87.00	-35.00	-46.00	8.00	8.00	-23.00
-12.00	-30.00	37.00	-18.00	10.00	15.00	-21.00
-25.00	25.00	13.00	-42.00	11.00	15.00	-16.00
-31.00	68.00	-25.00	-70.00	16.00	19.00	-11.00
-51.00	69.00	-1.00	-50.00	16.00	16.00	-8.00
-53.00	-1.00	61.00	12.00	25.00	18.00	-8.00
-62.00	-46.00	40.00	39.00	30.00	22.00	18.00
-43.00	-58.00	5.00	57.00	30.00	14.00	18.00
-26.00	-2.00	-2.00	67.00	21.00	13.00	23.00
-24.00	42.00	-55.00	42.00	10.00	10.00	10.00
-23.00	85.00	-153.00	-18.00	6.00	11.00	4.00
-16.00	91.00	-141.00	-90.00	1.00	15.00	-5.00
-12.00	76.00	-62.00	-75.00	8.00	19.00	-13.00
-16.00	62.00	-53.00	-19.00	6.00	2.00	-12.00
-14.00	24.00	-67.00	21.00	-21.00	-49.00	-2.00
-31.00	8.00	-49.00	26.00	-11.00	-33.00	-4.00
-18.00	-24.00	45.00	37.00	36.00	29.00	-14.00
7.00	-42.00	100.00	49.00	49.00	35.00	-26.00
30.00	-22.00	118.00	65.00	37.00	7.00	5.00
44.00	-10.00	69.00	46.00	13.00	-12.00	27.00
45.00	-4.00	74.00	43.00	29.00	12.00	20.00
58.00	41.00	72.00	48.00	35.00	27.00	15.00
69.00	117.00	85.00	41.00	39.00	49.00	14.00
66.00	94.00	84.00	26.00	32.00	52.00	17.00
58.00	18.00	39.00	-12.00	17.00	27.00	15.00
61.00	-10.00	-1.00	-53.00	7.00	17.00	4.00
52.00	-23.00	16.00	-103.00	-4.00	2.00	-1.00
18.00	-39.00	-28.00	-65.00	-1.00	6.00	-10.00
9.00	-30.00	-22.00	30.00	-12.00	-2.00	-12.00
10.00	13.00	19.00	82.00	-14.00	-2.00	-23.00
1.00	32.00	39.00	81.00	-15.00	-4.00	-30.00
-12.00	62.00	-14.00	23.00	-22.00	-2.00	-16.00
-16.00	103.00	-23.00	-9.00	-15.00	5.00	-4.00
-21.00	72.00	-2.00	-21.00	-1.00	4.00	-4.00
-28.00	1.00	-35.00	-54.00	11.00	9.00	1.00
-32.00	-18.00	-77.00	-89.00	13.00	14.00	1.00
-17.00	-31.00	-57.00	-55.00	21.00	14.00	4.00
-12.00	-51.00	-2.00	-16.00	18.00	11.00	0.00
-10.00	5.00	43.00	35.00	17.00	5.00	-3.00
0.00	31.00	63.00	44.00	23.00	3.00	5.00
2.00	18.00	87.00	28.00	24.00	-10.00	6.00
1.00	1.00	91.00	99.00	33.00	-14.00	7.00
7.00	26.00	18.00	120.00	41.00	5.00	9.00
7.00	48.00	-34.00	71.00	38.00	15.00	9.00
-19.00	51.00	-29.00	46.00	31.00	20.00	-2.00
-38.00	13.00	1.00	43.00	11.00	33.00	-3.00
-38.00	-25.00	7.00	30.00	-1.00	18.00	-4.00
-33.00	-21.00	23.00	26.00	6.00	4.00	-1.00
-25.00	-9.00	37.00	17.00	10.00	10.00	-4.00
-15.00	34.00	5.00	5.00	14.00	4.00	-7.00
-5.00	56.00	-18.00	-14.00	11.00	14.00	0.00
0.00	32.00	1.00	19.00	9.00	23.00	12.00
-14.00	51.00	-15.00	40.00	26.00	16.00	16.00
-11.00	37.00	-18.00	16.00	30.00	10.00	20.00
-2.00	17.00	-97.00	-87.00	25.00	12.00	14.00
-2.00	25.00	-165.00	-43.00	2.00	-12.00	4.00
0.00	56.00	-123.00	-28.00	-5.00	-8.00	4.00
8.00	32.00	-33.00	-43.00	0.00	1.00	0.00
12.00	-14.00	32.00	-96.00	14.00	14.00	-6.00
14.00	-36.00	93.00	-83.00	17.00	16.00	-5.00
0.00	-49.00	78.00	-13.00	8.00	7.00	8.00
-6.00	-68.00	22.00	50.00	1.00	0.00	9.00
1.00	-88.00	13.00	68.00	0.00	8.00	1.00
9.00	-63.00	11.00	68.00	-1.00	27.00	-8.00
0.00	-17.00	69.00	88.00	-3.00	27.00	-4.00
-1.00	18.00	97.00	58.00	0.00	19.00	-9.00
2.00	46.00	132.00	11.00	-6.00	15.00	-14.00
-3.00	51.00	96.00	-26.00	-10.00	4.00	-7.00
-2.00	31.00	15.00	-28.00	-8.00	1.00	4.00
-9.00	21.00	-84.00	-56.00	4.00	7.00	-6.00
2.00	54.00	-171.00	-140.00	12.00	20.00	-16.00
13.00	81.00	-154.00	-154.00	16.00	22.00	-13.00
12.00	100.00	-111.00	-69.00	-1.00	-14.00	4.00
12.00	94.00	-75.00	-20.00	0.00	-21.00	16.00
13.00	71.00	-70.00	-9.00	12.00	0.00	15.00
20.00	50.00	-27.00	2.00	10.00	9.00	12.00
23.00	38.00	29.00	66.00	14.00	5.00	9.00
14.00	60.00	47.00	108.00	13.00	13.00	18.00
7.00	61.00	32.00	134.00	22.00	10.00	9.00
7.00	-1.00	-10.00	111.00	29.00	3.00	-18.00
7.00	-44.00	-82.00	24.00	21.00	1.00	-4.00
6.00	-55.00	-80.00	-20.00	19.00	10.00	-4.00
0.00	-61.00	-65.00	-72.00	18.00	21.00	2.00
-10.00	-56.00	2.00	-63.00	10.00	2.00	9.00
-14.00	-100.00	-14.00	-45.00	7.00	-1.00	10.00
-13.00	-94.00	69.00	-20.00	6.00	4.00	26.00
-15.00	-64.00	99.00	54.00	10.00	7.00	26.00
-17.00	-25.00	113.00	95.00	7.00	10.00	15.00
-11.00	23.00	130.00	124.00	8.00	16.00	-18.00
0.00	71.00	130.00	129.00	33.00	31.00	-33.00
5.00	94.00	172.00	137.00	26.00	4.00	-32.00
3.00	49.00	177.00	137.00	42.00	22.00	-27.00
6.00	39.00	129.00	91.00	61.00	31.00	-19.00
13.00	86.00	45.00	29.00	63.00	25.00	-14.00
19.00	96.00	3.00	20.00	58.00	18.00	-22.00
12.00	61.00	10.00	60.00	50.00	16.00	-16.00
1.00	-7.00	-16.00	34.00	41.00	6.00	-9.00
-2.00	4.00	-27.00	-59.00	43.00	13.00	5.00
0.00	16.00	-18.00	-117.00	18.00	-1.00	21.00
-6.00	5.00	-26.00	-65.00	1.00	-1.00	20.00
-5.00	4.00	-78.00	-85.00	-23.00	0.00	25.00
4.00	22.00	-97.00	-97.00	-27.00	-9.00	21.00
7.00	0.00	-94.00	-99.00	-28.00	-5.00	14.00
8.00	-27.00	-95.00	-90.00	-20.00	12.00	12.00
3.00	-13.00	-52.00	-53.00	-23.00	9.00	7.00
-16.00	-8.00	38.00	-31.00	-32.00	8.00	-1.00
-28.00	11.00	56.00	0.00	-29.00	15.00	-7.00
-24.00	33.00	67.00	28.00	-29.00	18.00	-14.00
-12.00	103.00	47.00	42.00	-25.00	19.00	6.00
1.00	136.00	85.00	46.00	-19.00	16.00	7.00
11.00	84.00	44.00	75.00	-15.00	19.00	7.00
12.00	7.00	-21.00	43.00	-9.00	10.00	2.00
20.00	-40.00	-11.00	14.00	2.00	17.00	-5.00
19.00	-42.00	32.00	41.00	13.00	18.00	-12.00
14.00	-25.00	-4.00	29.00	21.00	6.00	-14.00
9.00	-6.00	-79.00	54.00	9.00	7.00	-9.00
-9.00	9.00	-82.00	98.00	22.00	22.00	-11.00
-13.00	42.00	-63.00	131.00	30.00	26.00	-12.00
-12.00	11.00	-31.00	79.00	30.00	20.00	-12.00
-6.00	-45.00	-23.00	-11.00	28.00	-5.00	-4.00
15.00	-52.00	-38.00	-99.00	31.00	-2.00	-5.00
22.00	-51.00	-15.00	-97.00	23.00	8.00	1.00
22.00	-32.00	-3.00	-100.00	13.00	12.00	2.00
15.00	-4.00	-36.00	-129.00	11.00	7.00	-2.00
-7.00	49.00	-33.00	-112.00	17.00	-1.00	-7.00
-13.00	26.00	-15.00	-40.00	39.00	1.00	-3.00
-18.00	3.00	-7.00	5.00	38.00	0.00	-4.00
-24.00	2.00	38.00	15.00	27.00	10.00	-16.00
-26.00	-2.00	51.00	13.00	20.00	19.00	-19.00
-17.00	18.00	5.00	25.00	15.00	18.00	-3.00
-10.00	74.00	12.00	19.00	9.00	19.00	4.00
-18.00	100.00	-5.00	-8.00	8.00	1.00	-21.00
-20.00	42.00	-16.00	22.00	1.00	-22.00	-18.00
-18.00	-10.00	-39.00	45.00	0.00	-34.00	-7.00
-18.00	-70.00	-67.00	12.00	15.00	-9.00	-3.00
-16.00	-111.00	-10.00	32.00	28.00	25.00	-4.00
-8.00	-87.00	50.00	68.00	22.00	35.00	3.00
1.00	-12.00	68.00	74.00	19.00	33.00	11.00
13.00	60.00	59.00	64.00	28.00	36.00	30.00
12.00	73.00	4.00	35.00	33.00	24.00	30.00
2.00	113.00	-55.00	-18.00	30.00	14.00	17.00
-4.00	136.00	-43.00	-31.00	27.00	6.00	9.00
3.00	96.00	2.00	-8.00	17.00	7.00	1.00
10.00	80.00	74.00	5.00	21.00	11.00	-2.00
8.00	106.00	128.00	36.00	22.00	14.00	-14.00
16.00	70.00	146.00	81.00	11.00	1.00	-9.00
22.00	-7.00	110.00	115.00	4.00	-2.00	4.00
21.00	-13.00	23.00	101.00	1.00	-3.00	11.00
29.00	11.00	-50.00	30.00	-5.00	-6.00	10.00
40.00	34.00	-121.00	-29.00	0.00	11.00	6.00
29.00	57.00	-132.00	-44.00	1.00	19.00	1.00
31.00	43.00	-38.00	17.00	-2.00	23.00	-5.00
30.00	0.00	77.00	94.00	-10.00	24.00	-10.00
20.00	-25.00	157.00	87.00	-15.00	18.00	-15.00
22.00	-49.00	132.00	49.00	-14.00	8.00	-8.00
17.00	-35.00	50.00	-3.00	-9.00	-8.00	-3.00
12.00	-35.00	31.00	-41.00	-2.00	-3.00	-19.00
1.00	-50.00	-2.00	-84.00	0.00	-8.00	-33.00
-3.00	-35.00	-30.00	-57.00	8.00	10.00	-31.00
1.00	-31.00	-70.00	-61.00	11.00	10.00	-33.00
-9.00	-34.00	-73.00	-58.00	8.00	18.00	-10.00
-10.00	-87.00	-34.00	-38.00	34.00	38.00	15.00
-9.00	-64.00	-59.00	-80.00	31.00	24.00	26.00
-13.00	-4.00	-48.00	-87.00	24.00	4.00	45.00
-24.00	54.00	-11.00	-38.00	26.00	3.00	47.00
-26.00	60.00	-68.00	-71.00	21.00	-16.00	58.00
-24.00	93.00	-25.00	-9.00	28.00	-3.00	67.00
-23.00	88.00	4.00	33.00	29.00	10.00	53.00
-18.00	73.00	-2.00	58.00	22.00	11.00	25.00
-20.00	48.00	1.00	53.00	27.00	-3.00	-4.00
-21.00	60.00	-44.00	16.00	11.00	-16.00	-30.00
-20.00	88.00	-94.00	-51.00	13.00	20.00	-29.00
-18.00	112.00	-31.00	-49.00	10.00	38.00	-24.00
-22.00	103.00	60.00	-21.00	-4.00	28.00	-21.00
-18.00	57.00	79.00	14.00	-23.00	11.00	-19.00
-4.00	-24.00	53.00	10.00	-32.00	10.00	-8.00
12.00	-80.00	61.00	120.00	-28.00	9.00	-7.00
17.00	-97.00	84.00	204.00	-26.00	4.00	-6.00
17.00	-99.00	24.00	203.00	-37.00	-10.00	-3.00
-5.00	-62.00	-29.00	153.00	-8.00	12.00	-1.00
-9.00	-6.00	-6.00	112.00	10.00	22.00	-1.00
-16.00	24.00	12.00	73.00	30.00	3.00	9.00
-11.00	15.00	-14.00	-42.00	37.00	7.00	9.00
-1.00	16.00	-45.00	-181.00	21.00	2.00	1.00
8.00	13.00	-38.00	-143.00	17.00	5.00	-6.00
5.00	-2.00	-26.00	-90.00	24.00	20.00	-3.00
5.00	-61.00	-9.00	1.00	32.00	16.00	9.00
6.00	-63.00	3.00	74.00	35.00	9.00	1.00
20.00	-45.00	21.00	72.00	44.00	19.00	-5.00
18.00	-16.00	22.00	19.00	48.00	23.00	-14.00
17.00	21.00	-3.00	18.00	41.00	3.00	-24.00
34.00	22.00	24.00	24.00	30.00	-1.00	-29.00
21.00	92.00	52.00	14.00	30.00	2.00	-29.00
8.00	67.00	110.00	1.00	26.00	-13.00	-19.00
-2.00	59.00	103.00	-32.00	11.00	13.00	-22.00
-19.00	89.00	16.00	-56.00	11.00	26.00	-4.00
-27.00	123.00	-37.00	-66.00	9.00	5.00	-4.00
-34.00	41.00	-25.00	-94.00	3.00	15.00	8.00
-25.00	-56.00	-36.00	-138.00	-6.00	19.00	22.00
-26.00	-57.00	-40.00	-132.00	-16.00	-1.00	34.00
-14.00	-15.00	-10.00	-55.00	-20.00	-7.00	32.00
8.00	57.00	1.00	59.00	-13.00	19.00	33.00
24.00	97.00	-34.00	97.00	-10.00	20.00	19.00
30.00	116.00	-91.00	89.00	2.00	21.00	6.00
28.00	83.00	-90.00	81.00	9.00	17.00	-6.00
26.00	-10.00	25.00	84.00	7.00	18.00	0.00
25.00	-47.00	112.00	79.00	4.00	25.00	-6.00
19.00	-22.00	122.00	73.00	6.00	19.00	-4.00
6.00	9.00	94.00	32.00	27.00	22.00	0.00
0.00	6.00	74.00	3.00	31.00	14.00	0.00
1.00	26.00	21.00	-42.00	28.00	11.00	-7.00
11.00	32.00	-1.00	-55.00	20.00	-8.00	-7.00
15.00	-30.00	-22.00	-84.00	17.00	-19.00	2.00
2.00	-44.00	1.00	-33.00	8.00	-28.00	9.00
-3.00	-80.00	-10.00	50.00	1.00	-17.00	6.00
2.00	-81.00	-104.00	51.00	0.00	18.00	-7.00
4.00	-7.00	-133.00	8.00	11.00	29.00	-9.00
2.00	83.00	-65.00	2.00	24.00	21.00	6.00
0.00	146.00	-4.00	8.00	33.00	26.00	-2.00
1.00	141.00	7.00	-40.00	49.00	26.00	-7.00
-3.00	122.00	-17.00	-57.00	56.00	15.00	-6.00
-7.00	83.00	-32.00	-33.00	44.00	10.00	-15.00
-8.00	-48.00	-21.00	21.00	31.00	8.00	-14.00
-11.00	-127.00	-45.00	17.00	18.00	1.00	-23.00
-11.00	-122.00	-58.00	27.00	15.00	0.00	-25.00
-12.00	-91.00	-43.00	10.00	6.00	4.00	-10.00
-22.00	-59.00	-20.00	13.00	-3.00	1.00	-6.00
-22.00	64.00	34.00	15.00	-5.00	5.00	-10.00
-22.00	189.00	60.00	29.00	-11.00	6.00	-22.00
-13.00	188.00	38.00	16.00	-17.00	5.00	-23.00
-2.00	133.00	32.00	-18.00	-15.00	-2.00	-9.00
4.00	40.00	97.00	44.00	-11.00	6.00	-4.00
3.00	-54.00	123.00	106.00	-9.00	20.00	11.00
3.00	-96.00	119.00	127.00	-10.00	18.00	11.00
6.00	-101.00	83.00	104.00	-9.00	21.00	14.00
2.00	-66.00	72.00	76.00	-1.00	24.00	15.00
5.00	29.00	29.00	3.00	1.00	17.00	9.00
-1.00	133.00	-39.00	-80.00	3.00	16.00	26.00
-4.00	119.00	-16.00	-55.00	12.00	20.00	24.00
-9.00	43.00	-34.00	-27.00	9.00	7.00	17.00
-11.00	-5.00	-58.00	-8.00	33.00	13.00	4.00
-10.00	-53.00	-61.00	9.00	31.00	20.00	5.00
-8.00	-82.00	-17.00	68.00	24.00	14.00	3.00
-12.00	-61.00	74.00	87.00	25.00	5.00	-1.00
-12.00	-13.00	73.00	56.00	16.00	7.00	-10.00
-4.00	42.00	109.00	18.00	18.00	14.00	-14.00
-4.00	74.00	77.00	4.00	13.00	8.00	-8.00
-6.00	75.00	-6.00	9.00	5.00	20.00	5.00
-27.00	72.00	-89.00	-28.00	4.00	17.00	2.00
-26.00	35.00	-95.00	62.00	10.00	-9.00	7.00
-5.00	-7.00	-23.00	64.00	1.00	-14.00	29.00
-5.00	-5.00	25.00	59.00	14.00	-16.00	26.00
-3.00	-3.00	-54.00	4.00	39.00	0.00	8.00
2.00	24.00	-48.00	-39.00	61.00	14.00	-6.00
5.00	30.00	-32.00	-67.00	55.00	12.00	-5.00
-1.00	22.00	-69.00	-129.00	41.00	10.00	-5.00
-3.00	10.00	-61.00	-183.00	24.00	-4.00	-6.00
12.00	-20.00	-17.00	-153.00	14.00	-2.00	-10.00
32.00	-164.00	-11.00	8.00	19.00	16.00	-6.00
42.00	-213.00	-41.00	110.00	40.00	16.00	-12.00
54.00	-204.00	-23.00	114.00	47.00	8.00	-14.00
63.00	-119.00	21.00	33.00	31.00	-8.00	-6.00
62.00	15.00	19.00	-14.00	18.00	-7.00	0.00
57.00	143.00	22.00	3.00	18.00	15.00	0.00
48.00	215.00	65.00	80.00	9.00	12.00	7.00
30.00	193.00	57.00	52.00	-4.00	7.00	10.00
25.00	143.00	48.00	5.00	0.00	5.00	6.00
12.00	134.00	47.00	40.00	-2.00	-3.00	5.00
-2.00	111.00	14.00	46.00	-3.00	6.00	-1.00
-2.00	78.00	42.00	-2.00	8.00	20.00	-10.00
-12.00	58.00	-1.00	-44.00	-2.00	-6.00	-14.00
-15.00	20.00	-81.00	-142.00	-11.00	6.00	-8.00
-10.00	-20.00	-83.00	-90.00	-6.00	36.00	1.00
-17.00	-68.00	-29.00	-15.00	-17.00	0.00	0.00
-23.00	-77.00	-1.00	-36.00	-22.00	-10.00	7.00
-18.00	-53.00	-34.00	-35.00	-8.00	15.00	5.00
-19.00	-33.00	-38.00	-14.00	0.00	25.00	-1.00
-32.00	5.00	-1.00	45.00	-1.00	23.00	9.00
-32.00	67.00	52.00	65.00	9.00	37.00	12.00
-17.00	89.00	170.00	53.00	1.00	-2.00	15.00
-3.00	60.00	200.00	82.00	3.00	-1.00	21.00
10.00	-5.00	205.00	162.00	24.00	36.00	20.00
7.00	-28.00	73.00	125.00	30.00	48.00	9.00
-5.00	-47.00	-27.00	60.00	22.00	20.00	-28.00
-16.00	-110.00	-132.00	-79.00	14.00	9.00	-45.00
-12.00	-147.00	-178.00	-159.00	13.00	13.00	-37.00
-11.00	-86.00	-143.00	-172.00	8.00	-4.00	-22.00
-11.00	-39.00	-82.00	-109.00	15.00	6.00	-22.00
-17.00	37.00	-57.00	-22.00	22.00	18.00	-22.00
-20.00	109.00	-17.00	33.00	20.00	7.00	-9.00
-8.00	102.00	19.00	30.00	12.00	-3.00	-30.00
-2.00	68.00	0.00	8.00	15.00	30.00	-46.00
-3.00	57.00	-28.00	-14.00	18.00	12.00	-14.00
-6.00	40.00	-45.00	-27.00	10.00	-38.00	3.00
-10.00	-38.00	4.00	19.00	20.00	-21.00	2.00
7.00	-1.00	12.00	46.00	33.00	13.00	12.00
1.00	49.00	-16.00	62.00	35.00	21.00	29.00
-2.00	41.00	-9.00	41.00	38.00	10.00	29.00
1.00	69.00	-2.00	37.00	38.00	10.00	24.00
-5.00	94.00	-15.00	25.00	26.00	5.00	20.00
-8.00	109.00	34.00	-42.00	28.00	3.00	-1.00
-3.00	14.00	38.00	-9.00	28.00	5.00	-9.00
10.00	-12.00	50.00	7.00	10.00	9.00	-1.00
21.00	-1.00	71.00	13.00	-3.00	18.00	5.00
11.00	24.00	79.00	70.00	-2.00	13.00	13.00
9.00	51.00	103.00	86.00	-3.00	6.00	31.00
7.00	64.00	124.00	61.00	-11.00	3.00	36.00
10.00	76.00	99.00	45.00	-18.00	1.00	31.00
-3.00	22.00	106.00	71.00	-11.00	9.00	26.00
-9.00	5.00	63.00	67.00	-5.00	29.00	4.00
-14.00	-9.00	23.00	58.00	-6.00	17.00	-10.00
-22.00	-22.00	-32.00	8.00	-5.00	4.00	-10.00
-8.00	-58.00	-86.00	-37.00	-14.00	10.00	-13.00
4.00	-57.00	-69.00	11.00	-6.00	18.00	-4.00
3.00	-41.00	-135.00	36.00	-8.00	3.00	-4.00
15.00	-11.00	-57.00	74.00	-7.00	16.00	2.00
21.00	26.00	9.00	57.00	5.00	25.00	3.00
21.00	37.00	-55.00	-28.00	15.00	22.00	4.00
8.00	-12.00	-72.00	-93.00	7.00	16.00	9.00
10.00	-55.00	-28.00	-63.00	11.00	13.00	-3.00
9.00	-55.00	1.00	-30.00	28.00	15.00	-12.00
1.00	-46.00	-62.00	-16.00	39.00	11.00	-9.00
-12.00	-18.00	-70.00	25.00	36.00	11.00	0.00
-19.00	74.00	-66.00	14.00	36.00	11.00	6.00
-39.00	114.00	-58.00	-4.00	44.00	7.00	9.00
-53.00	117.00	-40.00	48.00	48.00	3.00	14.00
-48.00	121.00	-7.00	84.00	44.00	5.00	24.00
-27.00	105.00	51.00	62.00	46.00	3.00	7.00
-19.00	107.00	112.00	11.00	64.00	4.00	-5.00
-11.00	91.00	130.00	-36.00	64.00	11.00	-22.00
-3.00	43.00	131.00	-26.00	50.00	7.00	-22.00
-3.00	-6.00	110.00	-23.00	25.00	-4.00	-27.00
9.00	-45.00	51.00	-75.00	23.00	0.00	-45.00
35.00	-70.00	-7.00	-104.00	29.00	7.00	-43.00
59.00	-75.00	-60.00	-94.00	28.00	10.00	-18.00
52.00	-40.00	-23.00	-42.00	28.00	11.00	6.00
17.00	-7.00	42.00	11.00	15.00	9.00	17.00
13.00	-6.00	55.00	80.00	2.00	7.00	22.00
13.00	21.00	38.00	99.00	-12.00	3.00	33.00
13.00	-7.00	9.00	83.00	-18.00	4.00	34.00
13.00	-55.00	-12.00	50.00	-27.00	2.00	26.00
21.00	-45.00	-71.00	-40.00	-58.00	-26.00	12.00
13.00	-36.00	-110.00	-74.00	-56.00	15.00	0.00
10.00	-17.00	-14.00	-26.00	-50.00	35.00	-10.00
6.00	-5.00	-5.00	-12.00	-50.00	7.00	-28.00
2.00	33.00	-29.00	-38.00	-44.00	14.00	-42.00
1.00	7.00	-12.00	-42.00	-36.00	18.00	-35.00
-7.00	35.00	61.00	19.00	-21.00	11.00	-19.00
2.00	65.00	76.00	12.00	-7.00	18.00	-2.00
20.00	76.00	89.00	22.00	0.00	19.00	3.00
19.00	78.00	106.00	78.00	3.00	24.00	16.00
11.00	105.00	88.00	113.00	16.00	24.00	44.00
4.00	81.00	34.00	75.00	27.00	24.00	56.00
-2.00	87.00	-26.00	22.00	49.00	29.00	32.00
-7.00	86.00	-63.00	-26.00	48.00	21.00	2.00
-6.00	47.00	-106.00	-38.00	48.00	15.00	-6.00
-8.00	-17.00	-123.00	-43.00	39.00	5.00	-11.00
-10.00	-54.00	-110.00	-44.00	24.00	10.00	-23.00
-15.00	-109.00	-26.00	-33.00	39.00	14.00	-13.00
-18.00	-138.00	73.00	27.00	56.00	3.00	-8.00
-19.00	-123.00	89.00	80.00	42.00	8.00	-10.00
-19.00	-76.00	65.00	108.00	32.00	12.00	-11.00
-21.00	-16.00	83.00	113.00	15.00	-5.00	-18.00
-25.00	26.00	55.00	116.00	-3.00	-9.00	-25.00
-21.00	73.00	-38.00	71.00	-16.00	5.00	-24.00
-17.00	125.00	-91.00	16.00	-5.00	15.00	-23.00
-22.00	106.00	-161.00	-20.00	-12.00	2.00	-19.00
-17.00	88.00	-121.00	-49.00	-13.00	0.00	7.00
-24.00	47.00	15.00	-12.00	-13.00	-5.00	23.00
-33.00	-24.00	84.00	-19.00	-7.00	-8.00	35.00
-33.00	-60.00	93.00	-33.00	4.00	5.00	37.00
-19.00	-82.00	118.00	-87.00	16.00	13.00	41.00
-22.00	-65.00	89.00	-48.00	19.00	25.00	51.00
-30.00	31.00	-14.00	-34.00	13.00	20.00	35.00
-26.00	85.00	-44.00	-36.00	19.00	22.00	10.00
-31.00	85.00	-14.00	-25.00	28.00	28.00	1.00
-36.00	101.00	-7.00	-24.00	31.00	11.00	19.00
-32.00	119.00	-34.00	7.00	21.00	-10.00	28.00
-14.00	106.00	-100.00	-44.00	22.00	5.00	-1.00
13.00	65.00	-114.00	6.00	34.00	22.00	-14.00
24.00	20.00	-131.00	62.00	28.00	12.00	-18.00
33.00	-22.00	-116.00	69.00	18.00	-3.00	-35.00
52.00	-34.00	-38.00	47.00	10.00	4.00	-43.00
44.00	-34.00	14.00	7.00	7.00	-5.00	-32.00
52.00	-50.00	94.00	-26.00	9.00	0.00	-16.00
58.00	-35.00	111.00	-50.00	19.00	16.00	-20.00
55.00	-17.00	62.00	-63.00	11.00	3.00	-14.00
59.00	18.00	6.00	-66.00	17.00	-15.00	10.00
64.00	35.00	-41.00	-105.00	21.00	-3.00	21.00
72.00	19.00	-41.00	-22.00	22.00	18.00	19.00
64.00	-53.00	-56.00	71.00	24.00	6.00	10.00
59.00	-96.00	-39.00	89.00	26.00	14.00	-1.00
52.00	-85.00	-2.00	83.00	20.00	12.00	0.00
59.00	-27.00	58.00	49.00	13.00	9.00	-4.00
55.00	48.00	112.00	31.00	10.00	9.00	-12.00
62.00	99.00	107.00	-2.00	4.00	1.00	-19.00
66.00	107.00	143.00	-11.00	1.00	-7.00	-11.00
70.00	117.00	182.00	19.00	-1.00	-8.00	-3.00
64.00	56.00	165.00	80.00	11.00	15.00	-12.00
49.00	-36.00	122.00	149.00	19.00	27.00	-15.00
39.00	-43.00	58.00	137.00	23.00	28.00	0.00
35.00	-34.00	4.00	92.00	31.00	23.00	6.00
18.00	-35.00	-76.00	32.00	41.00	25.00	2.00
-5.00	-24.00	-92.00	-24.00	33.00	18.00	-6.00
-19.00	6.00	-82.00	-60.00	28.00	20.00	-9.00
-24.00	5.00	-111.00	-84.00	18.00	26.00	-6.00
-40.00	29.00	-91.00	-37.00	6.00	13.00	6.00
-59.00	38.00	-29.00	3.00	-2.00	9.00	6.00
-80.00	65.00	11.00	14.00	2.00	10.00	11.00
-80.00	66.00	10.00	50.00	-7.00	3.00	34.00
-80.00	44.00	-14.00	61.00	-9.00	0.00	53.00
-70.00	6.00	-34.00	32.00	-13.00	2.00	49.00
-72.00	13.00	-18.00	29.00	-8.00	22.00	37.00
-73.00	14.00	2.00	40.00	-18.00	25.00	30.00
-83.00	18.00	7.00	68.00	-39.00	-11.00	9.00
-82.00	67.00	59.00	6.00	-38.00	-6.00	-10.00
-74.00	94.00	63.00	-56.00	-25.00	22.00	-36.00
-58.00	102.00	1.00	-65.00	-6.00	28.00	-40.00
-53.00	81.00	-33.00	-33.00	16.00	26.00	-37.00
-66.00	47.00	-18.00	-66.00	32.00	21.00	-22.00
-70.00	-10.00	-61.00	-137.00	23.00	-1.00	2.00
-53.00	-38.00	-85.00	-106.00	29.00	21.00	2.00
-27.00	-74.00	-47.00	-24.00	26.00	32.00	-7.00
-13.00	-103.00	7.00	16.00	13.00	13.00	1.00
-4.00	-100.00	-33.00	2.00	4.00	11.00	5.00
-3.00	-65.00	-66.00	12.00	8.00	7.00	10.00
-9.00	-11.00	-33.00	29.00	11.00	-5.00	9.00
-4.00	17.00	8.00	17.00	7.00	-3.00	6.00
8.00	16.00	8.00	-24.00	1.00	-2.00	12.00
10.00	7.00	71.00	-22.00	-4.00	-10.00	22.00
0.00	-5.00	132.00	69.00	5.00	2.00	25.00
-9.00	10.00	167.00	104.00	19.00	21.00	1.00
-3.00	-15.00	143.00	105.00	14.00	20.00	-21.00
-8.00	-37.00	86.00	97.00	12.00	29.00	-16.00
-16.00	21.00	17.00	82.00	16.00	11.00	-4.00
-13.00	43.00	-16.00	44.00	24.00	-17.00	-1.00
-10.00	71.00	2.00	-36.00	25.00	-8.00	11.00
-8.00	124.00	-8.00	-115.00	19.00	-5.00	22.00
14.00	141.00	-94.00	-170.00	10.00	5.00	22.00
24.00	94.00	-71.00	-157.00	13.00	13.00	19.00
25.00	56.00	-54.00	-67.00	35.00	22.00	12.00
21.00	53.00	-87.00	-46.00	42.00	23.00	-7.00
19.00	26.00	-104.00	24.00	34.00	9.00	-33.00
28.00	18.00	-88.00	67.00	24.00	-8.00	-31.00
47.00	15.00	-35.00	117.00	26.00	3.00	-42.00
61.00	21.00	18.00	140.00	23.00	21.00	-26.00
59.00	19.00	24.00	130.00	0.00	8.00	-10.00
50.00	16.00	26.00	101.00	-12.00	2.00	-5.00
40.00	24.00	6.00	49.00	-4.00	22.00	7.00
31.00	35.00	11.00	-70.00	0.00	20.00	12.00
30.00	-6.00	-6.00	-104.00	6.00	5.00	17.00
31.00	-90.00	13.00	-122.00	5.00	11.00	13.00
24.00	-140.00	12.00	-87.00	20.00	14.00	29.00
13.00	-172.00	20.00	-38.00	33.00	8.00	28.00
23.00	-154.00	82.00	20.00	29.00	6.00	13.00
22.00	-96.00	42.00	26.00	8.00	1.00	5.00
12.00	20.00	27.00	52.00	-2.00	-13.00	-10.00
2.00	124.00	-2.00	29.00	-1.00	4.00	-12.00
-9.00	125.00	26.00	65.00	0.00	15.00	-8.00
-5.00	122.00	76.00	117.00	2.00	18.00	-8.00
7.00	115.00	86.00	108.00	0.00	18.00	-10.00
7.00	80.00	47.00	70.00	2.00	11.00	-8.00
-3.00	87.00	8.00	35.00	9.00	13.00	-7.00
-7.00	119.00	-41.00	-9.00	12.00	11.00	-3.00
-21.00	81.00	-63.00	-21.00	23.00	7.00	2.00
-18.00	-32.00	-35.00	-34.00	36.00	0.00	6.00
-5.00	-50.00	-26.00	-59.00	32.00	-4.00	9.00
-9.00	8.00	-18.00	-8.00	32.00	-4.00	8.00
-3.00	44.00	-10.00	33.00	21.00	-2.00	11.00
-3.00	47.00	24.00	88.00	7.00	9.00	13.00
-6.00	25.00	46.00	128.00	0.00	18.00	4.00
3.00	-51.00	-6.00	93.00	-21.00	21.00	-20.00
4.00	-102.00	-51.00	46.00	-18.00	21.00	-36.00
-7.00	-78.00	-44.00	8.00	-3.00	14.00	-21.00
-19.00	-13.00	-28.00	1.00	1.00	8.00	-7.00
-19.00	101.00	-66.00	-85.00	4.00	2.00	9.00
-6.00	192.00	-4.00	-172.00	6.00	2.00	29.00
-5.00	150.00	54.00	-182.00	12.00	18.00	25.00
-19.00	95.00	142.00	-104.00	20.00	25.00	24.00
-5.00	32.00	233.00	20.00	19.00	20.00	17.00
10.00	-37.00	239.00	104.00	16.00	12.00	10.00
1.00	-51.00	149.00	95.00	25.00	10.00	9.00
-10.00	-80.00	101.00	118.00	43.00	22.00	4.00
-11.00	-104.00	41.00	149.00	43.00	27.00	7.00
2.00	-87.00	-70.00	110.00	30.00	20.00	9.00
8.00	-47.00	-200.00	44.00	20.00	9.00	8.00
12.00	6.00	-217.00	31.00	13.00	3.00	2.00
10.00	46.00	-175.00	11.00	4.00	-5.00	6.00
11.00	44.00	-183.00	-62.00	-9.00	-21.00	3.00
18.00	-2.00	-174.00	-145.00	-1.00	-12.00	-4.00
27.00	-9.00	-63.00	-203.00	11.00	2.00	-14.00
29.00	4.00	-41.00	-145.00	22.00	8.00	-8.00
37.00	-14.00	-22.00	-103.00	31.00	14.00	-20.00
44.00	14.00	37.00	-32.00	18.00	19.00	-25.00
35.00	58.00	72.00	20.00	19.00	27.00	-36.00
30.00	56.00	64.00	53.00	20.00	30.00	-37.00
17.00	9.00	79.00	85.00	15.00	10.00	-31.00
10.00	-47.00	128.00	101.00	16.00	-9.00	3.00
4.00	-40.00	77.00	103.00	9.00	-11.00	12.00
-2.00	-6.00	-11.00	97.00	5.00	-14.00	23.00
-5.00	43.00	-47.00	55.00	6.00	-20.00	31.00
-6.00	80.00	-50.00	66.00	33.00	21.00	35.00
-9.00	59.00	-54.00	17.00	48.00	31.00	26.00
-11.00	24.00	-13.00	-55.00	40.00	29.00	19.00
-12.00	-7.00	16.00	-73.00	27.00	20.00	14.00
-17.00	17.00	85.00	-70.00	15.00	19.00	11.00
-23.00	48.00	95.00	-9.00	20.00	15.00	3.00
-23.00	77.00	-1.00	5.00	23.00	1.00	0.00
-11.00	53.00	-18.00	7.00	1.00	-5.00	-1.00
-5.00	42.00	15.00	55.00	-5.00	10.00	-2.00
-4.00	18.00	3.00	60.00	-7.00	13.00	2.00
-8.00	-4.00	-53.00	86.00	-11.00	4.00	-3.00
-13.00	-27.00	-13.00	48.00	-10.00	4.00	-9.00
-15.00	-23.00	29.00	-19.00	1.00	7.00	-21.00
-32.00	-22.00	22.00	-31.00	0.00	4.00	-22.00
-49.00	-30.00	32.00	42.00	5.00	3.00	-11.00
-34.00	-43.00	84.00	53.00	4.00	9.00	-5.00
-19.00	-24.00	39.00	56.00	0.00	10.00	5.00
-16.00	-40.00	-34.00	-13.00	-3.00	13.00	18.00
-3.00	-137.00	-62.00	-12.00	-7.00	8.00	21.00
10.00	-109.00	-17.00	-22.00	1.00	17.00	10.00
17.00	-1.00	0.00	-76.00	2.00	20.00	-1.00
15.00	70.00	-54.00	-182.00	1.00	10.00	4.00
5.00	131.00	-63.00	-166.00	7.00	14.00	5.00
3.00	204.00	-4.00	-71.00	23.00	24.00	3.00
3.00	219.00	24.00	0.00	18.00	8.00	9.00
4.00	144.00	42.00	25.00	20.00	8.00	-14.00
14.00	76.00	39.00	30.00	31.00	23.00	-21.00
12.00	20.00	9.00	16.00	27.00	24.00	-21.00
-9.00	-13.00	-34.00	13.00	19.00	14.00	-28.00
-23.00	-123.00	-61.00	38.00	15.00	4.00	-18.00
-22.00	-182.00	-44.00	31.00	20.00	1.00	-13.00
1.00	-162.00	42.00	40.00	26.00	-4.00	-1.00
12.00	-103.00	88.00	70.00	28.00	2.00	11.00
-1.00	-18.00	134.00	134.00	30.00	10.00	24.00
-8.00	105.00	112.00	133.00	25.00	7.00	43.00
-6.00	194.00	56.00	89.00	18.00	6.00	36.00
9.00	132.00	41.00	38.00	15.00	0.00	16.00
11.00	81.00	5.00	-4.00	0.00	-19.00	4.00
11.00	102.00	-44.00	-26.00	0.00	-6.00	11.00
15.00	105.00	-73.00	-79.00	7.00	4.00	8.00
22.00	83.00	-63.00	-91.00	9.00	-9.00	6.00
14.00	34.00	15.00	-72.00	17.00	10.00	0.00
11.00	-48.00	87.00	-22.00	35.00	36.00	-20.00
14.00	-68.00	117.00	49.00	34.00	39.00	-24.00
16.00	-102.00	109.00	110.00	25.00	22.00	-2.00
7.00	-113.00	46.00	141.00	20.00	36.00	3.00
4.00	-50.00	16.00	161.00	10.00	37.00	1.00
-6.00	-7.00	-14.00	133.00	0.00	30.00	2.00
-17.00	-22.00	-60.00	32.00	-15.00	17.00	4.00
-8.00	-27.00	-7.00	1.00	-7.00	12.00	1.00
-2.00	57.00	-25.00	20.00	0.00	0.00	-7.00
-8.00	117.00	-13.00	-8.00	2.00	2.00	-14.00
-6.00	127.00	-40.00	-38.00	18.00	4.00	-20.00
1.00	135.00	-137.00	-125.00	6.00	-11.00	-12.00
2.00	123.00	-154.00	-164.00	8.00	-18.00	-7.00
-9.00	95.00	-128.00	-139.00	-1.00	-30.00	6.00
-5.00	23.00	-151.00	-68.00	1.00	-22.00	20.00
4.00	-43.00	-100.00	59.00	11.00	20.00	22.00
4.00	-80.00	-45.00	108.00	15.00	21.00	24.00
-6.00	-87.00	-2.00	77.00	13.00	23.00	17.00
-8.00	-67.00	37.00	47.00	16.00	28.00	12.00
-12.00	-6.00	8.00	3.00	8.00	23.00	2.00
-7.00	70.00	4.00	-36.00	9.00	16.00	-2.00
6.00	139.00	16.00	-99.00	0.00	10.00	-10.00
14.00	134.00	51.00	-81.00	-5.00	14.00	-6.00
17.00	96.00	70.00	-32.00	3.00	15.00	6.00
4.00	39.00	46.00	-10.00	12.00	13.00	5.00
9.00	-18.00	21.00	20.00	14.00	10.00	12.00
7.00	-63.00	-23.00	-7.00	20.00	12.00	19.00
-1.00	-86.00	-38.00	-21.00	15.00	-5.00	16.00
-14.00	-95.00	20.00	9.00	15.00	-14.00	-7.00
-6.00	-83.00	93.00	39.00	26.00	2.00	-22.00
-10.00	-72.00	195.00	74.00	39.00	18.00	-16.00
-25.00	-76.00	200.00	90.00	53.00	18.00	-10.00
-44.00	-79.00	118.00	90.00	45.00	3.00	-9.00
-42.00	-70.00	29.00	95.00	33.00	6.00	-11.00
-28.00	-14.00	-60.00	27.00	32.00	12.00	0.00
-10.00	44.00	-114.00	-37.00	19.00	6.00	-4.00
9.00	106.00	-135.00	-47.00	10.00	5.00	-9.00
14.00	133.00	-116.00	-24.00	5.00	1.00	-9.00
26.00	91.00	-55.00	77.00	4.00	4.00	-10.00
20.00	70.00	10.00	116.00	-9.00	-1.00	-4.00
19.00	40.00	2.00	47.00	-2.00	3.00	6.00
14.00	36.00	38.00	-14.00	-2.00	4.00	11.00
23.00	-9.00	42.00	-16.00	-11.00	9.00	15.00
4.00	-30.00	-6.00	-23.00	-15.00	21.00	13.00
-3.00	-29.00	6.00	5.00	-10.00	4.00	16.00
-4.00	-10.00	-28.00	-59.00	-10.00	-15.00	23.00
0.00	34.00	-61.00	-156.00	10.00	-1.00	22.00
3.00	24.00	-12.00	-158.00	33.00	10.00	10.00
5.00	-9.00	41.00	-97.00	45.00	36.00	-14.00
2.00	6.00	43.00	-75.00	44.00	35.00	-27.00
-6.00	-1.00	45.00	-25.00	25.00	18.00	-34.00
0.00	13.00	50.00	13.00	5.00	20.00	-20.00
9.00	75.00	53.00	43.00	-3.00	38.00	-8.00
10.00	147.00	28.00	52.00	-15.00	18.00	9.00
8.00	96.00	-24.00	20.00	-32.00	-5.00	13.00
12.00	21.00	-4.00	21.00	-33.00	8.00	20.00
10.00	6.00	73.00	47.00	-15.00	35.00	16.00
23.00	30.00	127.00	97.00	4.00	40.00	24.00
17.00	36.00	83.00	124.00	11.00	25.00	36.00
18.00	39.00	60.00	118.00	15.00	8.00	28.00
20.00	36.00	51.00	130.00	19.00	8.00	4.00
15.00	32.00	0.00	104.00	30.00	-9.00	-21.00
15.00	31.00	-42.00	62.00	41.00	-14.00	-30.00
16.00	32.00	-65.00	26.00	55.00	12.00	-12.00
-4.00	19.00	-54.00	11.00	50.00	-3.00	1.00
-5.00	-44.00	-86.00	-7.00	39.00	-8.00	3.00
0.00	-113.00	-96.00	-37.00	41.00	-5.00	6.00
-1.00	-110.00	-46.00	-62.00	47.00	21.00	7.00
-3.00	-81.00	27.00	-34.00	45.00	40.00	7.00
-11.00	-38.00	45.00	-37.00	32.00	20.00	8.00
-13.00	44.00	26.00	-8.00	17.00	8.00	6.00
-18.00	73.00	-6.00	1.00	19.00	-6.00	2.00
-26.00	106.00	-74.00	-44.00	25.00	6.00	-8.00
-20.00	80.00	-112.00	-75.00	17.00	3.00	-11.00
-14.00	48.00	-80.00	-64.00	0.00	-10.00	-3.00
5.00	42.00	49.00	-63.00	-11.00	-1.00	-1.00
19.00	12.00	129.00	-14.00	-15.00	12.00	-10.00
-3.00	-2.00	71.00	21.00	-17.00	13.00	-15.00
-5.00	-7.00	37.00	64.00	-17.00	8.00	-5.00
-4.00	-22.00	36.00	76.00	-3.00	6.00	-4.00
-6.00	-36.00	-51.00	55.00	14.00	11.00	5.00
-5.00	-36.00	-50.00	82.00	24.00	12.00	7.00
-4.00	-36.00	55.00	74.00	15.00	8.00	1.00
-1.00	-122.00	49.00	26.00	4.00	10.00	5.00
-6.00	-127.00	3.00	19.00	-10.00	1.00	7.00
-3.00	-113.00	-48.00	30.00	-16.00	6.00	1.00
-4.00	-49.00	-36.00	61.00	-16.00	16.00	6.00
3.00	66.00	-16.00	42.00	-20.00	19.00	4.00
9.00	189.00	-70.00	-68.00	-23.00	15.00	2.00
7.00	213.00	-36.00	-54.00	-22.00	5.00	0.00
9.00	149.00	-36.00	-33.00	-27.00	4.00	3.00
-1.00	85.00	-21.00	-32.00	-17.00	3.00	8.00
3.00	68.00	32.00	-40.00	-2.00	12.00	15.00
16.00	42.00	61.00	-37.00	1.00	6.00	16.00
15.00	35.00	36.00	-4.00	8.00	10.00	8.00
6.00	11.00	35.00	45.00	19.00	11.00	1.00
3.00	25.00	108.00	58.00	13.00	10.00	2.00
3.00	18.00	168.00	58.00	13.00	19.00	2.00
5.00	-14.00	87.00	94.00	25.00	21.00	2.00
1.00	-48.00	-2.00	92.00	34.00	20.00	1.00
-9.00	-72.00	-17.00	71.00	49.00	17.00	-3.00
-24.00	-82.00	-28.00	19.00	61.00	5.00	-13.00
-30.00	-69.00	-77.00	-42.00	57.00	-3.00	-15.00
-31.00	-41.00	-57.00	-67.00	50.00	6.00	-18.00
-15.00	32.00	-10.00	-45.00	42.00	8.00	-14.00
-6.00	141.00	-43.00	-48.00	15.00	3.00	-21.00
-7.00	150.00	-105.00	-70.00	-8.00	2.00	-12.00
1.00	107.00	-74.00	46.00	-5.00	6.00	-3.00
11.00	47.00	2.00	101.00	-4.00	14.00	3.00
16.00	6.00	24.00	103.00	-5.00	11.00	10.00
6.00	7.00	5.00	73.00	4.00	5.00	13.00
0.00	26.00	-1.00	41.00	7.00	8.00	17.00
-6.00	38.00	18.00	-10.00	10.00	8.00	16.00
-11.00	21.00	-8.00	-106.00	13.00	6.00	5.00
-8.00	-8.00	-28.00	-177.00	8.00	5.00	-8.00
-7.00	-16.00	-10.00	-227.00	8.00	8.00	-23.00
7.00	-17.00	95.00	-126.00	7.00	13.00	-25.00
12.00	-21.00	129.00	2.00	25.00	17.00	-7.00
11.00	-33.00	80.00	46.00	35.00	19.00	-7.00
3.00	-31.00	45.00	74.00	29.00	23.00	-11.00
-3.00	-39.00	-1.00	64.00	26.00	21.00	-4.00
-5.00	-18.00	-34.00	30.00	22.00	15.00	-1.00
-7.00	-23.00	-66.00	37.00	8.00	12.00	7.00
1.00	2.00	-24.00	29.00	-10.00	12.00	13.00
4.00	9.00	35.00	-6.00	-23.00	9.00	11.00
6.00	-17.00	26.00	-20.00	-32.00	18.00	2.00
9.00	-24.00	7.00	24.00	-22.00	12.00	-10.00
0.00	-15.00	35.00	50.00	-17.00	-9.00	1.00
-3.00	17.00	25.00	23.00	-2.00	-7.00	0.00
-5.00	85.00	-26.00	-19.00	7.00	11.00	-18.00
-10.00	111.00	-75.00	-18.00	10.00	12.00	-12.00
-12.00	95.00	-94.00	27.00	19.00	12.00	3.00
-19.00	94.00	-87.00	-13.00	31.00	15.00	22.00
-15.00	103.00	-66.00	-78.00	27.00	15.00	10.00
-1.00	66.00	-9.00	-60.00	19.00	14.00	17.00
7.00	31.00	29.00	-3.00	32.00	2.00	23.00
6.00	43.00	53.00	30.00	31.00	-11.00	22.00
-1.00	56.00	4.00	21.00	24.00	8.00	21.00
3.00	-35.00	20.00	82.00	21.00	22.00	28.00
4.00	-60.00	57.00	117.00	14.00	18.00	29.00
16.00	-61.00	63.00	120.00	16.00	22.00	14.00
17.00	-79.00	105.00	94.00	20.00	21.00	-9.00
12.00	-91.00	156.00	67.00	38.00	10.00	-10.00
6.00	-63.00	162.00	58.00	36.00	6.00	-16.00
-15.00	-54.00	85.00	41.00	30.00	-4.00	-23.00
-28.00	-43.00	32.00	-16.00	15.00	-18.00	-8.00
-18.00	19.00	-13.00	-73.00	11.00	5.00	-2.00
-8.00	48.00	-132.00	-95.00	6.00	16.00	-7.00
-1.00	23.00	-124.00	-2.00	14.00	-3.00	-2.00
16.00	58.00	-75.00	22.00	29.00	15.00	-14.00
16.00	117.00	-136.00	-6.00	40.00	4.00	-9.00
7.00	110.00	-154.00	-21.00	51.00	0.00	11.00
16.00	91.00	-18.00	-37.00	36.00	-4.00	8.00
17.00	50.00	65.00	3.00	19.00	-1.00	-4.00
11.00	-4.00	-10.00	3.00	12.00	21.00	-10.00
10.00	-48.00	-54.00	55.00	-6.00	13.00	-5.00
19.00	-89.00	4.00	66.00	-18.00	11.00	-1.00
31.00	-66.00	36.00	64.00	-26.00	18.00	-1.00
28.00	2.00	27.00	69.00	-44.00	17.00	6.00
15.00	76.00	84.00	44.00	-52.00	10.00	3.00
7.00	142.00	72.00	14.00	-36.00	18.00	4.00
3.00	128.00	34.00	-13.00	-22.00	7.00	-2.00
6.00	77.00	-11.00	-15.00	-15.00	-3.00	-16.00
6.00	-36.00	-27.00	14.00	-18.00	3.00	-12.00
-1.00	-73.00	-32.00	60.00	-10.00	31.00	-2.00
-22.00	-67.00	-41.00	95.00	3.00	47.00	1.00
-38.00	-36.00	-28.00	108.00	19.00	47.00	-1.00
-35.00	15.00	-41.00	45.00	22.00	38.00	-7.00
-42.00	75.00	-38.00	-20.00	34.00	14.00	13.00
-41.00	42.00	-3.00	-102.00	39.00	-4.00	-6.00
-23.00	22.00	-38.00	-132.00	31.00	-12.00	-21.00
-18.00	35.00	2.00	-89.00	30.00	-3.00	-8.00
-8.00	34.00	67.00	-99.00	32.00	22.00	1.00
2.00	48.00	51.00	-65.00	18.00	9.00	3.00
15.00	59.00	-6.00	-105.00	11.00	-5.00	9.00
16.00	62.00	-2.00	-78.00	4.00	-7.00	13.00
10.00	28.00	3.00	13.00	1.00	-13.00	7.00
7.00	-44.00	-36.00	20.00	9.00	-5.00	7.00
14.00	-54.00	-69.00	27.00	20.00	-4.00	6.00
27.00	-54.00	-17.00	35.00	31.00	12.00	0.00
32.00	-52.00	84.00	19.00	29.00	9.00	7.00
29.00	-42.00	131.00	28.00	19.00	-6.00	3.00
15.00	-26.00	148.00	23.00	19.00	-7.00	1.00
13.00	-36.00	131.00	15.00	27.00	18.00	-9.00
13.00	7.00	50.00	-49.00	36.00	36.00	-14.00
4.00	24.00	-34.00	-43.00	32.00	25.00	-8.00
-3.00	15.00	-141.00	2.00	46.00	20.00	-6.00
-10.00	-20.00	-147.00	76.00	37.00	14.00	-14.00
-5.00	7.00	-97.00	75.00	28.00	10.00	-10.00
-5.00	20.00	-30.00	97.00	17.00	-3.00	-25.00
-7.00	34.00	-36.00	64.00	4.00	-18.00	-6.00
-9.00	77.00	-44.00	9.00	4.00	-3.00	-9.00
-16.00	136.00	-1.00	-43.00	0.00	-18.00	1.00
-6.00	155.00	48.00	-72.00	-1.00	-12.00	16.00
-5.00	98.00	46.00	-136.00	-11.00	1.00	22.00
0.00	25.00	73.00	-102.00	-11.00	20.00	14.00
-2.00	-4.00	102.00	-31.00	-1.00	23.00	6.00
-5.00	-3.00	118.00	32.00	12.00	21.00	16.00
-10.00	27.00	123.00	60.00	17.00	19.00	32.00
-10.00	73.00	67.00	67.00	14.00	15.00	28.00
-12.00	97.00	2.00	62.00	3.00	13.00	23.00
-13.00	69.00	-32.00	45.00	1.00	8.00	20.00
-7.00	-7.00	-16.00	67.00	0.00	9.00	11.00
-3.00	-58.00	-5.00	57.00	-6.00	15.00	-9.00
-3.00	-82.00	-25.00	45.00	-4.00	22.00	-21.00
-15.00	-76.00	-35.00	31.00	-10.00	13.00	-13.00
-14.00	-46.00	-51.00	5.00	-11.00	7.00	0.00
3.00	-11.00	14.00	11.00	-5.00	14.00	4.00
27.00	1.00	96.00	21.00	0.00	32.00	8.00
31.00	-13.00	83.00	54.00	1.00	34.00	1.00
20.00	-26.00	86.00	73.00	7.00	35.00	-10.00
7.00	-28.00	77.00	82.00	3.00	22.00	-15.00
-9.00	-3.00	26.00	41.00	2.00	3.00	-5.00
-15.00	15.00	-70.00	15.00	18.00	6.00	1.00
-8.00	21.00	-117.00	-2.00	38.00	16.00	-6.00
-6.00	37.00	-100.00	-30.00	40.00	18.00	-13.00
-11.00	37.00	-13.00	-28.00	20.00	11.00	-9.00
-16.00	33.00	93.00	2.00	29.00	9.00	1.00
-19.00	5.00	116.00	74.00	39.00	11.00	6.00
-9.00	3.00	37.00	113.00	36.00	-8.00	15.00
4.00	-18.00	-74.00	78.00	40.00	-4.00	15.00
0.00	-25.00	-148.00	51.00	45.00	-1.00	9.00
-10.00	-24.00	-190.00	16.00	45.00	-9.00	1.00
-16.00	-30.00	-189.00	-25.00	39.00	-9.00	0.00
2.00	-63.00	-100.00	-53.00	35.00	-5.00	-16.00
2.00	-10.00	-37.00	-83.00	24.00	-11.00	-22.00
16.00	53.00	13.00	-28.00	26.00	-4.00	-22.00
20.00	69.00	53.00	-14.00	16.00	-1.00	-11.00
30.00	88.00	26.00	-33.00	1.00	-8.00	-4.00
30.00	97.00	20.00	-17.00	0.00	6.00	-1.00
21.00	106.00	37.00	5.00	6.00	32.00	-23.00
16.00	114.00	49.00	42.00	2.00	21.00	-40.00
19.00	79.00	8.00	-17.00	3.00	13.00	-31.00
25.00	34.00	-1.00	-56.00	-1.00	8.00	-12.00
25.00	1.00	25.00	-40.00	-6.00	6.00	-1.00
22.00	-15.00	41.00	-25.00	-12.00	11.00	17.00
2.00	-49.00	41.00	-55.00	-4.00	20.00	27.00
-19.00	-87.00	13.00	-79.00	1.00	21.00	22.00
-45.00	-72.00	25.00	7.00	1.00	23.00	15.00
-53.00	-41.00	19.00	48.00	5.00	22.00	25.00
-49.00	-7.00	-45.00	44.00	3.00	-5.00	24.00
-31.00	28.00	-44.00	36.00	-1.00	-14.00	10.00
-16.00	130.00	-28.00	31.00	5.00	5.00	1.00
-10.00	136.00	12.00	40.00	31.00	23.00	5.00
8.00	73.00	66.00	0.00	45.00	22.00	10.00
15.00	38.00	72.00	-48.00	28.00	-7.00	9.00
24.00	-4.00	53.00	-53.00	25.00	-6.00	8.00
32.00	-18.00	18.00	-38.00	23.00	18.00	0.00
30.00	20.00	4.00	5.00	17.00	35.00	-9.00
35.00	39.00	1.00	40.00	10.00	30.00	-18.00
23.00	28.00	-27.00	15.00	12.00	19.00	-19.00
1.00	-52.00	-83.00	-32.00	12.00	13.00	-7.00
-3.00	-116.00	-26.00	37.00	12.00	7.00	-7.00
-6.00	-138.00	10.00	45.00	4.00	-3.00	3.00
6.00	-101.00	64.00	39.00	-2.00	-2.00	-6.00
17.00	-22.00	114.00	49.00	-11.00	-8.00	-16.00
22.00	38.00	101.00	4.00	-11.00	-9.00	-6.00
20.00	104.00	71.00	-19.00	-9.00	-10.00	1.00
10.00	137.00	65.00	8.00	5.00	12.00	5.00
3.00	152.00	67.00	12.00	10.00	35.00	-2.00
21.00	113.00	40.00	16.00	5.00	25.00	-7.00
15.00	94.00	27.00	39.00	5.00	10.00	0.00
18.00	88.00	21.00	49.00	17.00	17.00	3.00
19.00	43.00	15.00	51.00	17.00	27.00	4.00
7.00	1.00	-33.00	17.00	9.00	24.00	-1.00
-4.00	-11.00	-71.00	-16.00	0.00	8.00	-3.00
-4.00	-6.00	-86.00	-11.00	15.00	10.00	9.00
-6.00	-25.00	-119.00	-35.00	22.00	1.00	20.00
-17.00	-33.00	-64.00	-48.00	12.00	-19.00	19.00
-32.00	-13.00	-56.00	-52.00	-1.00	-13.00	15.00
-39.00	-35.00	-58.00	-37.00	10.00	-11.00	-6.00
-34.00	-39.00	-33.00	4.00	30.00	11.00	-11.00
-36.00	-57.00	34.00	50.00	47.00	26.00	-6.00
-33.00	-87.00	2.00	48.00	44.00	30.00	-15.00
-18.00	-120.00	-8.00	48.00	39.00	22.00	-1.00
-8.00	-99.00	10.00	39.00	35.00	3.00	8.00
-1.00	-25.00	33.00	18.00	30.00	3.00	-8.00
1.00	58.00	33.00	-23.00	28.00	11.00	-10.00
4.00	123.00	-34.00	-68.00	27.00	8.00	-8.00
5.00	184.00	-77.00	-60.00	17.00	-6.00	-2.00
5.00	144.00	-73.00	-6.00	7.00	4.00	4.00
4.00	105.00	-49.00	11.00	4.00	8.00	-6.00
-4.00	86.00	-18.00	52.00	10.00	10.00	-12.00
-8.00	49.00	5.00	77.00	28.00	11.00	-4.00
-16.00	-10.00	43.00	86.00	30.00	18.00	12.00
-20.00	-43.00	111.00	71.00	20.00	16.00	14.00
-18.00	-26.00	197.00	73.00	1.00	4.00	13.00
-14.00	-46.00	160.00	64.00	-4.00	11.00	3.00
-19.00	-36.00	82.00	8.00	-5.00	14.00	-9.00
-12.00	2.00	57.00	-25.00	0.00	26.00	-10.00
-23.00	15.00	-46.00	-54.00	-1.00	18.00	-9.00
-23.00	26.00	-181.00	-97.00	-15.00	6.00	-16.00
-11.00	30.00	-199.00	-59.00	-28.00	-1.00	-10.00
-2.00	41.00	-94.00	8.00	-22.00	8.00	-2.00
7.00	32.00	-44.00	44.00	-6.00	3.00	5.00
7.00	7.00	-14.00	60.00	-3.00	0.00	30.00
13.00	-58.00	6.00	69.00	8.00	9.00	34.00
17.00	-59.00	44.00	59.00	16.00	13.00	25.00
22.00	-38.00	37.00	9.00	27.00	31.00	19.00
23.00	-48.00	17.00	-24.00	25.00	24.00	9.00
22.00	-13.00	90.00	-28.00	19.00	19.00	3.00
26.00	23.00	142.00	-23.00	15.00	10.00	-19.00
18.00	34.00	129.00	-47.00	27.00	22.00	-39.00
10.00	52.00	122.00	-42.00	25.00	13.00	-32.00
8.00	88.00	34.00	-7.00	26.00	3.00	-20.00
-2.00	115.00	-73.00	13.00	28.00	-6.00	-14.00
-6.00	50.00	-117.00	37.00	22.00	-9.00	-25.00
-7.00	-45.00	-136.00	73.00	8.00	-10.00	-13.00
-7.00	-82.00	-61.00	96.00	3.00	3.00	-6.00
-5.00	-81.00	-4.00	109.00	10.00	19.00	2.00
-3.00	-49.00	63.00	117.00	8.00	21.00	6.00
-5.00	11.00	105.00	78.00	8.00	18.00	9.00
-3.00	72.00	57.00	-14.00	9.00	15.00	8.00
15.00	77.00	39.00	-108.00	13.00	12.00	2.00
18.00	107.00	44.00	-36.00	21.00	5.00	3.00
2.00	158.00	-6.00	-27.00	19.00	12.00	11.00
9.00	151.00	-56.00	-42.00	18.00	4.00	12.00
16.00	92.00	-116.00	-74.00	6.00	-11.00	14.00
22.00	90.00	-116.00	-54.00	-10.00	-10.00	14.00
11.00	40.00	-45.00	-33.00	0.00	13.00	11.00
1.00	10.00	11.00	-13.00	27.00	19.00	14.00
-2.00	-10.00	52.00	51.00	22.00	16.00	18.00
-9.00	-14.00	120.00	95.00	19.00	18.00	10.00
-14.00	-35.00	104.00	48.00	29.00	33.00	-7.00
-17.00	-78.00	24.00	-16.00	22.00	27.00	-20.00
-9.00	-105.00	-125.00	-123.00	9.00	4.00	-19.00
2.00	-85.00	-161.00	-137.00	3.00	13.00	-19.00
3.00	-66.00	-125.00	-83.00	13.00	24.00	1.00
5.00	-51.00	-86.00	-32.00	7.00	3.00	12.00
5.00	24.00	-5.00	0.00	3.00	-16.00	5.00
-1.00	82.00	73.00	29.00	10.00	-21.00	10.00
12.00	60.00	85.00	60.00	34.00	-13.00	26.00
12.00	56.00	59.00	50.00	43.00	-3.00	7.00
18.00	6.00	24.00	-11.00	49.00	12.00	-4.00
18.00	14.00	-7.00	-81.00	49.00	24.00	14.00
2.00	52.00	32.00	-22.00	35.00	18.00	13.00
-6.00	29.00	82.00	24.00	9.00	12.00	-15.00
-7.00	24.00	146.00	117.00	-3.00	22.00	-29.00
-15.00	49.00	147.00	161.00	-9.00	27.00	-33.00
-23.00	49.00	93.00	115.00	-25.00	21.00	-45.00
-19.00	33.00	20.00	69.00	-33.00	13.00	-39.00
-4.00	18.00	-14.00	17.00	-22.00	10.00	-28.00
6.00	6.00	-19.00	-43.00	-5.00	6.00	-10.00
2.00	-1.00	-83.00	-63.00	0.00	-6.00	1.00
-5.00	11.00	-99.00	-75.00	0.00	-2.00	6.00
-8.00	17.00	-58.00	-24.00	15.00	-1.00	11.00
-4.00	9.00	-52.00	26.00	8.00	-15.00	2.00
1.00	-2.00	-45.00	15.00	0.00	-8.00	3.00
-14.00	8.00	-57.00	-5.00	-7.00	13.00	10.00
-16.00	-36.00	31.00	6.00	-8.00	28.00	0.00
-9.00	-70.00	34.00	17.00	-6.00	34.00	-2.00
-4.00	-92.00	-16.00	-9.00	-9.00	27.00	-1.00
-7.00	-61.00	7.00	42.00	2.00	20.00	4.00
-9.00	-7.00	1.00	68.00	4.00	-2.00	26.00
-10.00	22.00	-47.00	56.00	5.00	0.00	33.00
-8.00	43.00	1.00	59.00	16.00	5.00	28.00
-6.00	54.00	7.00	75.00	30.00	19.00	20.00
-3.00	20.00	-29.00	64.00	29.00	18.00	14.00
-1.00	19.00	-75.00	-2.00	20.00	12.00	10.00
-19.00	4.00	-90.00	-10.00	29.00	5.00	18.00
-30.00	13.00	-116.00	-33.00	31.00	5.00	24.00
-16.00	18.00	-96.00	-41.00	38.00	3.00	22.00
-1.00	39.00	-41.00	-90.00	33.00	11.00	14.00
8.00	89.00	66.00	-107.00	34.00	19.00	9.00
18.00	70.00	124.00	-58.00	18.00	13.00	6.00
24.00	63.00	114.00	-11.00	1.00	3.00	-8.00
42.00	70.00	153.00	91.00	0.00	-1.00	-11.00
45.00	26.00	137.00	136.00	1.00	0.00	-24.00
