
	-21.00	10.00	33.00	5.00	7.00	17.00	1.00
	-19.00	-4.00	-31.00	11.00	4.00	17.00	-3.00
	-16.00	-9.00	-142.00	16.00	4.00	12.00	6.00
	-14.00	-13.00	-235.00	18.00	2.00	12.00	6.00
	-13.00	-16.00	-193.00	24.00	6.00	12.00	3.00
	-2.00	-5.00	35.00	29.00	12.00	11.00	-8.00
	5.00	-1.00	-2.00	13.00	6.00	9.00	-14.00
	3.00	7.00	-31.00	-4.00	-3.00	8.00	-7.00
	-5.00	8.00	-61.00	8.00	-2.00	9.00	-11.00
	-11.00	0.00	-94.00	10.00	0.00	10.00	-7.00
	-4.00	-17.00	-34.00	-13.00	9.00	18.00	2.00
	-4.00	-12.00	17.00	-23.00	10.00	15.00	7.00
	-4.00	-1.00	31.00	-10.00	6.00	12.00	9.00
	0.00	-7.00	90.00	0.00	2.00	11.00	12.00
	8.00	10.00	215.00	14.00	4.00	15.00	12.00
	15.00	15.00	319.00	33.00	5.00	11.00	14.00
	26.00	26.00	275.00	34.00	2.00	4.00	19.00
	28.00	35.00	169.00	30.00	1.00	9.00	25.00
	21.00	40.00	-27.00	25.00	2.00	14.00	24.00
	4.00	50.00	-237.00	26.00	-2.00	11.00	25.00
	-12.00	49.00	-307.00	26.00	-2.00	8.00	12.00
	-23.00	44.00	-191.00	15.00	4.00	14.00	8.00
	-30.00	39.00	-155.00	10.00	17.00	14.00	5.00
	-29.00	38.00	-110.00	3.00	23.00	14.00	-3.00
	-25.00	38.00	68.00	-4.00	23.00	15.00	-9.00
	-21.00	41.00	249.00	-10.00	27.00	8.00	-23.00
	-24.00	45.00	229.00	-7.00	36.00	-1.00	-31.00
	-24.00	52.00	112.00	-4.00	42.00	-8.00	-28.00
	-17.00	34.00	93.00	-16.00	31.00	-9.00	-13.00
	-18.00	3.00	96.00	-13.00	23.00	-8.00	-5.00
	-22.00	-22.00	88.00	-7.00	24.00	-2.00	0.00
	-9.00	-16.00	66.00	-3.00	26.00	-2.00	3.00
	-3.00	5.00	-141.00	-6.00	16.00	-3.00	6.00
	-8.00	-4.00	-232.00	7.00	6.00	-2.00	7.00
	2.00	-18.00	-187.00	6.00	5.00	0.00	8.00
	18.00	-20.00	-79.00	-5.00	4.00	6.00	6.00
	22.00	-8.00	-81.00	-15.00	6.00	13.00	4.00
	27.00	6.00	-86.00	1.00	6.00	10.00	6.00
	32.00	-25.00	-1.00	19.00	4.00	7.00	0.00
	26.00	-40.00	104.00	26.00	0.00	6.00	1.00
	14.00	-29.00	104.00	21.00	5.00	6.00	1.00
	8.00	-8.00	40.00	8.00	5.00	12.00	1.00
	4.00	13.00	-46.00	2.00	8.00	21.00	3.00
	2.00	38.00	-76.00	3.00	13.00	21.00	1.00
	1.00	62.00	-42.00	5.00	12.00	17.00	1.00
	4.00	64.00	91.00	-4.00	14.00	17.00	0.00
	3.00	47.00	259.00	-4.00	16.00	14.00	2.00
	-2.00	30.00	324.00	7.00	16.00	11.00	6.00
	-3.00	16.00	205.00	19.00	17.00	6.00	11.00
	1.00	36.00	83.00	30.00	15.00	9.00	16.00
	-2.00	50.00	-46.00	28.00	10.00	7.00	14.00
	6.00	61.00	-117.00	17.00	1.00	10.00	9.00
	13.00	57.00	-70.00	15.00	-6.00	11.00	4.00
	3.00	52.00	94.00	19.00	0.00	16.00	0.00
	-15.00	50.00	118.00	8.00	8.00	19.00	-8.00
	-18.00	45.00	69.00	5.00	19.00	22.00	-20.00
	-21.00	22.00	-39.00	3.00	21.00	20.00	-27.00
	-18.00	6.00	-34.00	21.00	15.00	15.00	-27.00
	-12.00	-14.00	-129.00	25.00	12.00	13.00	-23.00
	-7.00	-16.00	-266.00	23.00	4.00	8.00	-9.00
	-8.00	-8.00	-283.00	24.00	1.00	18.00	-10.00
	-17.00	-2.00	-156.00	26.00	3.00	17.00	-16.00
	-20.00	-3.00	-5.00	20.00	11.00	13.00	-6.00
	-16.00	4.00	73.00	16.00	14.00	9.00	0.00
	-9.00	11.00	65.00	6.00	20.00	15.00	-4.00
	-6.00	16.00	13.00	-2.00	32.00	15.00	-3.00
	-7.00	26.00	1.00	-11.00	33.00	15.00	10.00
	11.00	29.00	134.00	-14.00	25.00	11.00	11.00
	16.00	15.00	177.00	-8.00	19.00	12.00	1.00
	-3.00	-3.00	96.00	-16.00	20.00	17.00	-15.00
	-4.00	-16.00	15.00	-25.00	25.00	22.00	-6.00
	5.00	-16.00	-7.00	-8.00	14.00	15.00	3.00
	13.00	-1.00	-27.00	14.00	10.00	10.00	8.00
	8.00	2.00	-68.00	24.00	1.00	6.00	8.00
	6.00	0.00	-99.00	-3.00	-4.00	11.00	3.00
	-6.00	3.00	-16.00	-15.00	-2.00	13.00	3.00
	-8.00	-3.00	88.00	-15.00	1.00	16.00	9.00
	-19.00	-15.00	-2.00	-15.00	8.00	15.00	10.00
	-13.00	-15.00	-123.00	-20.00	10.00	21.00	3.00
	-23.00	-1.00	-128.00	-17.00	5.00	19.00	9.00
	-30.00	4.00	-121.00	-24.00	5.00	15.00	13.00
	-27.00	13.00	-115.00	-15.00	10.00	11.00	14.00
	-36.00	21.00	-134.00	3.00	12.00	7.00	6.00
	-45.00	21.00	-180.00	-6.00	9.00	6.00	8.00
	-39.00	30.00	-156.00	2.00	15.00	0.00	-3.00
	-26.00	39.00	-99.00	5.00	14.00	3.00	-8.00
	-10.00	41.00	36.00	15.00	11.00	-2.00	-2.00
	-14.00	46.00	131.00	27.00	4.00	-8.00	-4.00
	-15.00	42.00	122.00	24.00	10.00	-14.00	-11.00
	-10.00	7.00	79.00	-4.00	10.00	5.00	-12.00
	4.00	-23.00	108.00	-3.00	21.00	6.00	-7.00
	10.00	-13.00	150.00	15.00	14.00	-9.00	1.00
	23.00	3.00	305.00	39.00	19.00	-12.00	4.00
	24.00	16.00	286.00	43.00	25.00	-15.00	-1.00
	11.00	28.00	64.00	31.00	15.00	-11.00	-1.00
	-2.00	15.00	-72.00	20.00	12.00	-6.00	4.00
	-7.00	-1.00	-28.00	41.00	21.00	0.00	-1.00
	-1.00	-11.00	-105.00	41.00	17.00	4.00	-4.00
	8.00	-8.00	-145.00	39.00	18.00	8.00	-2.00
	3.00	-10.00	-143.00	33.00	20.00	12.00	7.00
	2.00	3.00	-33.00	20.00	29.00	9.00	10.00
	8.00	18.00	-44.00	21.00	41.00	8.00	17.00
	28.00	31.00	159.00	9.00	51.00	15.00	15.00
	46.00	34.00	347.00	0.00	104.00	16.00	21.00
	44.00	30.00	353.00	11.00	97.00	7.00	30.00
	45.00	27.00	274.00	6.00	68.00	0.00	34.00
	52.00	14.00	178.00	1.00	49.00	-3.00	16.00
	58.00	11.00	111.00	9.00	40.00	-2.00	6.00
	53.00	11.00	106.00	11.00	3.00	2.00	-22.00
	43.00	5.00	-62.00	-7.00	-32.00	7.00	-37.00
	29.00	10.00	-140.00	-16.00	-61.00	11.00	-25.00
	27.00	12.00	-208.00	-20.00	-69.00	19.00	-9.00
	2.00	22.00	-251.00	-15.00	-64.00	21.00	-7.00
	-21.00	27.00	-308.00	-18.00	-54.00	17.00	1.00
	-11.00	30.00	-110.00	-16.00	-39.00	21.00	17.00
	-13.00	36.00	-136.00	-8.00	-26.00	19.00	14.00
	-22.00	23.00	-156.00	11.00	-5.00	23.00	-1.00
	-22.00	29.00	-167.00	5.00	-2.00	24.00	-5.00
	-9.00	39.00	-157.00	2.00	2.00	24.00	-4.00
	-8.00	38.00	-151.00	-6.00	3.00	17.00	-1.00
	-20.00	33.00	-87.00	-6.00	5.00	13.00	-4.00
	-29.00	31.00	58.00	-8.00	15.00	10.00	-11.00
	-24.00	22.00	196.00	-14.00	14.00	9.00	4.00
	-16.00	2.00	198.00	-14.00	9.00	16.00	17.00
	-10.00	4.00	121.00	6.00	9.00	14.00	16.00
	-5.00	7.00	50.00	8.00	17.00	20.00	14.00
	-2.00	-7.00	-23.00	6.00	17.00	24.00	12.00
	0.00	-1.00	-21.00	23.00	22.00	23.00	16.00
	-11.00	0.00	5.00	34.00	26.00	21.00	4.00
	-9.00	3.00	-43.00	23.00	30.00	19.00	-25.00
	1.00	6.00	44.00	22.00	32.00	14.00	-24.00
	15.00	8.00	191.00	16.00	30.00	7.00	-15.00
	27.00	14.00	187.00	15.00	19.00	0.00	-7.00
	28.00	20.00	131.00	26.00	15.00	-5.00	-7.00
	30.00	16.00	69.00	30.00	15.00	-5.00	-5.00
	24.00	7.00	-53.00	21.00	9.00	-3.00	-7.00
	15.00	-2.00	-165.00	12.00	0.00	6.00	-8.00
	9.00	2.00	-121.00	10.00	5.00	6.00	5.00
	-1.00	0.00	74.00	2.00	17.00	7.00	6.00
	3.00	9.00	59.00	-18.00	15.00	6.00	16.00
	0.00	26.00	-40.00	-19.00	9.00	7.00	11.00
	-9.00	31.00	50.00	-7.00	13.00	4.00	8.00
	-2.00	15.00	145.00	-12.00	16.00	-4.00	5.00
	19.00	10.00	150.00	-14.00	14.00	-8.00	2.00
	25.00	13.00	48.00	-3.00	9.00	-2.00	5.00
	29.00	24.00	116.00	13.00	14.00	-1.00	8.00
	35.00	21.00	248.00	31.00	18.00	-2.00	4.00
	40.00	14.00	167.00	36.00	16.00	-6.00	4.00
	38.00	15.00	-67.00	46.00	16.00	1.00	7.00
	25.00	8.00	-150.00	42.00	12.00	8.00	7.00
	6.00	-3.00	-108.00	8.00	16.00	18.00	3.00
	-4.00	-3.00	-135.00	3.00	13.00	17.00	-7.00
	-13.00	-6.00	-295.00	-27.00	9.00	30.00	-19.00
	-26.00	-4.00	-304.00	-32.00	9.00	35.00	-16.00
	-58.00	5.00	-170.00	-26.00	10.00	24.00	-8.00
	-62.00	7.00	79.00	-33.00	25.00	23.00	-9.00
	-47.00	9.00	156.00	-23.00	19.00	16.00	-7.00
	-33.00	17.00	118.00	-3.00	6.00	9.00	-2.00
	-28.00	25.00	77.00	21.00	1.00	5.00	-2.00
	-29.00	23.00	-47.00	25.00	-3.00	4.00	-3.00
	-28.00	30.00	-136.00	27.00	0.00	12.00	-4.00
	-20.00	27.00	-341.00	15.00	0.00	24.00	-1.00
	-20.00	25.00	-354.00	3.00	7.00	27.00	0.00
	-19.00	39.00	-231.00	-11.00	7.00	17.00	3.00
	-7.00	29.00	-105.00	-12.00	13.00	13.00	6.00
	-6.00	25.00	-25.00	-5.00	22.00	12.00	4.00
	9.00	38.00	46.00	8.00	11.00	8.00	2.00
	26.00	33.00	74.00	3.00	6.00	4.00	-5.00
	37.00	32.00	305.00	2.00	19.00	2.00	-12.00
	46.00	23.00	447.00	28.00	18.00	-2.00	-14.00
	37.00	8.00	418.00	45.00	11.00	-8.00	-13.00
	30.00	-1.00	307.00	44.00	5.00	-2.00	-13.00
	27.00	10.00	143.00	41.00	8.00	6.00	-10.00
	19.00	9.00	5.00	26.00	12.00	9.00	-5.00
	18.00	15.00	-221.00	7.00	13.00	21.00	-1.00
	-8.00	19.00	-180.00	2.00	14.00	18.00	-1.00
	-19.00	21.00	-193.00	-9.00	16.00	13.00	-3.00
	-23.00	7.00	-175.00	-15.00	21.00	1.00	-3.00
	-20.00	-7.00	-119.00	-9.00	24.00	-5.00	-5.00
	-11.00	-4.00	3.00	-2.00	23.00	-11.00	-5.00
	-4.00	9.00	98.00	15.00	21.00	-9.00	-24.00
	11.00	7.00	172.00	21.00	19.00	2.00	-23.00
	27.00	-1.00	271.00	5.00	18.00	13.00	-6.00
	25.00	5.00	346.00	21.00	20.00	15.00	-12.00
	16.00	13.00	258.00	25.00	19.00	5.00	-11.00
	12.00	3.00	87.00	19.00	16.00	-2.00	5.00
	7.00	16.00	-25.00	22.00	16.00	-1.00	6.00
	2.00	15.00	-144.00	7.00	6.00	7.00	3.00
	-15.00	12.00	-340.00	-20.00	-1.00	22.00	-2.00
	-42.00	12.00	-395.00	-19.00	-1.00	25.00	11.00
	-71.00	25.00	-323.00	6.00	12.00	17.00	33.00
	-78.00	22.00	-209.00	-10.00	26.00	17.00	27.00
	-48.00	11.00	-129.00	-2.00	25.00	14.00	17.00
	-18.00	9.00	-90.00	17.00	12.00	9.00	3.00
	2.00	14.00	11.00	-4.00	6.00	8.00	-16.00
	0.00	14.00	75.00	-23.00	17.00	16.00	-5.00
	0.00	15.00	95.00	-14.00	14.00	13.00	14.00
	7.00	13.00	97.00	3.00	14.00	6.00	15.00
	8.00	12.00	75.00	18.00	17.00	4.00	14.00
	12.00	11.00	99.00	7.00	22.00	14.00	19.00
	21.00	16.00	42.00	5.00	22.00	18.00	18.00
	10.00	31.00	32.00	20.00	25.00	6.00	19.00
	10.00	35.00	105.00	28.00	28.00	6.00	28.00
	12.00	30.00	108.00	15.00	10.00	4.00	41.00
	16.00	23.00	36.00	7.00	0.00	2.00	44.00
	7.00	-1.00	24.00	18.00	-1.00	5.00	37.00
	7.00	9.00	97.00	20.00	4.00	5.00	17.00
	23.00	7.00	156.00	15.00	3.00	8.00	4.00
	38.00	-2.00	170.00	13.00	0.00	18.00	3.00
	43.00	-3.00	112.00	21.00	10.00	31.00	-10.00
	32.00	9.00	74.00	50.00	15.00	26.00	-23.00
	27.00	13.00	11.00	42.00	19.00	26.00	-10.00
	26.00	10.00	-145.00	15.00	11.00	24.00	5.00
	14.00	17.00	-203.00	24.00	3.00	15.00	13.00
	11.00	18.00	-212.00	24.00	2.00	8.00	2.00
	-1.00	17.00	-112.00	0.00	7.00	8.00	6.00
	7.00	10.00	-61.00	-16.00	9.00	10.00	15.00
	20.00	11.00	-40.00	-12.00	7.00	3.00	9.00
	15.00	14.00	27.00	-3.00	7.00	0.00	3.00
	10.00	9.00	128.00	4.00	7.00	-2.00	9.00
	2.00	12.00	166.00	1.00	9.00	2.00	-4.00
	1.00	10.00	164.00	11.00	5.00	-1.00	-15.00
	5.00	14.00	144.00	19.00	0.00	-1.00	-16.00
	8.00	14.00	109.00	3.00	-7.00	3.00	-29.00
	-9.00	25.00	38.00	-11.00	-8.00	12.00	-15.00
	-26.00	36.00	-58.00	-17.00	2.00	11.00	-3.00
	-32.00	37.00	-224.00	-26.00	9.00	4.00	9.00
	-12.00	28.00	-159.00	-30.00	10.00	-7.00	18.00
	13.00	7.00	-32.00	-24.00	21.00	-3.00	12.00
	13.00	-2.00	55.00	-20.00	25.00	7.00	4.00
	19.00	7.00	168.00	9.00	16.00	4.00	-4.00
	12.00	11.00	188.00	28.00	5.00	2.00	-10.00
	0.00	16.00	51.00	45.00	-1.00	18.00	0.00
	-7.00	19.00	-144.00	47.00	5.00	33.00	9.00
	-18.00	20.00	-367.00	5.00	27.00	43.00	-1.00
	-38.00	16.00	-340.00	-11.00	22.00	28.00	0.00
	-55.00	18.00	-306.00	-40.00	12.00	18.00	12.00
	-61.00	17.00	-122.00	-35.00	11.00	10.00	19.00
	-53.00	12.00	7.00	-17.00	13.00	14.00	23.00
	-24.00	25.00	128.00	6.00	21.00	13.00	24.00
	-2.00	22.00	96.00	7.00	33.00	15.00	12.00
	13.00	15.00	88.00	4.00	22.00	7.00	1.00
	20.00	8.00	146.00	-2.00	18.00	7.00	-2.00
	28.00	-4.00	106.00	5.00	14.00	-1.00	-11.00
	31.00	-3.00	159.00	27.00	10.00	-1.00	-21.00
	34.00	3.00	77.00	28.00	3.00	5.00	-32.00
	27.00	20.00	89.00	57.00	5.00	9.00	-32.00
	9.00	28.00	123.00	37.00	21.00	12.00	-21.00
	-2.00	20.00	36.00	20.00	18.00	2.00	-13.00
	-13.00	5.00	-75.00	26.00	9.00	-9.00	-6.00
	-3.00	-1.00	-96.00	16.00	0.00	-7.00	-2.00
	-6.00	6.00	-146.00	-7.00	0.00	3.00	4.00
	-13.00	12.00	-32.00	-12.00	3.00	13.00	11.00
	-19.00	14.00	147.00	4.00	3.00	11.00	20.00
	-35.00	10.00	37.00	-10.00	7.00	10.00	18.00
	-35.00	10.00	15.00	-24.00	11.00	20.00	21.00
	-26.00	9.00	-160.00	-20.00	9.00	21.00	21.00
	-17.00	12.00	-51.00	-9.00	6.00	15.00	15.00
	-12.00	14.00	-82.00	2.00	4.00	13.00	0.00
	-30.00	22.00	-139.00	24.00	7.00	12.00	4.00
	-28.00	29.00	-273.00	28.00	15.00	21.00	-1.00
	-19.00	31.00	-293.00	5.00	15.00	14.00	-22.00
	-14.00	34.00	-170.00	-2.00	18.00	0.00	-15.00
	-10.00	16.00	-16.00	-18.00	19.00	-5.00	-6.00
	1.00	25.00	162.00	-14.00	20.00	-5.00	6.00
	-15.00	31.00	254.00	10.00	18.00	-8.00	6.00
	-9.00	22.00	240.00	19.00	13.00	-7.00	-5.00
	-3.00	16.00	88.00	-6.00	7.00	4.00	-21.00
	-5.00	9.00	-39.00	3.00	4.00	16.00	-14.00
	-19.00	14.00	-76.00	24.00	16.00	22.00	9.00
	-22.00	15.00	35.00	20.00	31.00	22.00	21.00
	-20.00	13.00	107.00	1.00	30.00	17.00	12.00
	-3.00	11.00	117.00	-4.00	19.00	11.00	-12.00
	0.00	9.00	80.00	4.00	12.00	14.00	-31.00
	-3.00	14.00	105.00	13.00	22.00	17.00	-25.00
	8.00	20.00	85.00	18.00	22.00	9.00	-9.00
	25.00	20.00	32.00	13.00	14.00	10.00	-8.00
	30.00	11.00	68.00	8.00	7.00	3.00	-5.00
	31.00	10.00	189.00	22.00	9.00	-5.00	-5.00
	30.00	12.00	251.00	15.00	12.00	-13.00	-24.00
	40.00	-5.00	186.00	9.00	11.00	-27.00	-8.00
	41.00	-15.00	119.00	2.00	11.00	-22.00	2.00
	17.00	-28.00	133.00	4.00	18.00	-15.00	10.00
	-7.00	-12.00	182.00	17.00	20.00	-10.00	21.00
	-15.00	-13.00	-45.00	9.00	-2.00	-4.00	18.00
	-18.00	5.00	-221.00	14.00	-16.00	13.00	15.00
	-36.00	23.00	-297.00	32.00	-10.00	33.00	24.00
	-53.00	33.00	-317.00	37.00	10.00	44.00	27.00
	-56.00	34.00	-258.00	9.00	24.00	47.00	34.00
	-46.00	22.00	-144.00	2.00	27.00	32.00	38.00
	-26.00	18.00	-58.00	2.00	23.00	27.00	20.00
	-9.00	18.00	-5.00	-4.00	18.00	29.00	-1.00
	0.00	22.00	44.00	-17.00	10.00	15.00	-8.00
	7.00	21.00	107.00	-26.00	7.00	6.00	-5.00
	21.00	20.00	-28.00	-23.00	10.00	2.00	-9.00
	33.00	20.00	-92.00	-4.00	11.00	5.00	-1.00
	29.00	10.00	-19.00	22.00	1.00	0.00	-3.00
	22.00	2.00	63.00	19.00	-2.00	6.00	-1.00
	24.00	12.00	131.00	34.00	0.00	15.00	-7.00
	41.00	23.00	66.00	20.00	5.00	30.00	1.00
	40.00	20.00	146.00	3.00	23.00	37.00	10.00
	37.00	17.00	260.00	-9.00	21.00	26.00	10.00
	35.00	15.00	357.00	-2.00	10.00	14.00	2.00
	50.00	23.00	286.00	-5.00	11.00	9.00	-2.00
	48.00	23.00	53.00	4.00	10.00	2.00	-4.00
	32.00	16.00	3.00	11.00	3.00	-3.00	-3.00
	14.00	5.00	-12.00	-7.00	8.00	6.00	-4.00
	0.00	7.00	-176.00	18.00	13.00	12.00	-21.00
	-32.00	19.00	-77.00	43.00	23.00	1.00	-22.00
	-32.00	11.00	1.00	16.00	9.00	-2.00	-6.00
	-49.00	16.00	43.00	8.00	13.00	13.00	4.00
	-51.00	17.00	-114.00	-26.00	9.00	31.00	-1.00
	-83.00	18.00	-211.00	11.00	16.00	30.00	-26.00
	-103.00	4.00	-346.00	9.00	22.00	20.00	-22.00
	-89.00	3.00	-377.00	-27.00	23.00	18.00	-7.00
	-79.00	-2.00	-228.00	-36.00	24.00	12.00	3.00
	-65.00	4.00	-25.00	-20.00	24.00	20.00	14.00
	-34.00	15.00	115.00	8.00	23.00	8.00	24.00
	-10.00	22.00	19.00	17.00	17.00	-1.00	16.00
	0.00	22.00	-83.00	22.00	15.00	2.00	9.00
	16.00	32.00	-143.00	20.00	5.00	-7.00	9.00
	24.00	39.00	0.00	3.00	-14.00	-24.00	0.00
	35.00	31.00	94.00	10.00	-20.00	-12.00	-21.00
	60.00	19.00	140.00	20.00	-16.00	-4.00	-18.00
	50.00	17.00	185.00	26.00	-8.00	7.00	-3.00
	54.00	10.00	265.00	54.00	-2.00	20.00	-3.00
	37.00	16.00	310.00	64.00	5.00	16.00	-6.00
	3.00	13.00	161.00	35.00	12.00	20.00	-6.00
	-2.00	5.00	7.00	22.00	18.00	12.00	0.00
	-4.00	-1.00	-44.00	1.00	32.00	11.00	12.00
	-13.00	-6.00	-100.00	-5.00	36.00	19.00	18.00
	-26.00	1.00	-211.00	-7.00	29.00	38.00	10.00
	-35.00	-5.00	-243.00	-14.00	13.00	29.00	0.00
	-61.00	5.00	-168.00	-29.00	13.00	20.00	-4.00
	-50.00	12.00	-67.00	-27.00	18.00	6.00	-10.00
	-34.00	11.00	-127.00	-31.00	17.00	-9.00	-6.00
	-27.00	17.00	-100.00	-5.00	6.00	-14.00	10.00
	-17.00	8.00	-122.00	7.00	7.00	-9.00	4.00
	-8.00	-13.00	-39.00	24.00	11.00	1.00	-5.00
	13.00	-18.00	89.00	10.00	12.00	5.00	-5.00
	39.00	-4.00	222.00	16.00	23.00	19.00	6.00
	45.00	5.00	395.00	21.00	23.00	9.00	12.00
	34.00	11.00	424.00	30.00	17.00	3.00	20.00
	34.00	18.00	292.00	17.00	11.00	5.00	28.00
	38.00	14.00	106.00	-6.00	15.00	2.00	17.00
	45.00	17.00	-97.00	-6.00	17.00	5.00	14.00
	43.00	18.00	-312.00	-12.00	15.00	7.00	25.00
	19.00	27.00	-279.00	-22.00	16.00	10.00	30.00
	11.00	34.00	-66.00	-6.00	21.00	20.00	13.00
	13.00	34.00	3.00	0.00	22.00	28.00	9.00
	13.00	34.00	-7.00	27.00	15.00	15.00	18.00
	9.00	36.00	11.00	34.00	14.00	0.00	15.00
	17.00	44.00	-65.00	20.00	8.00	-3.00	4.00
	29.00	54.00	-109.00	24.00	10.00	-3.00	-6.00
	25.00	45.00	-60.00	24.00	10.00	3.00	-7.00
	19.00	17.00	-128.00	13.00	1.00	7.00	-21.00
	23.00	-4.00	-78.00	-4.00	-6.00	12.00	-35.00
	27.00	-6.00	109.00	1.00	-6.00	7.00	-42.00
	34.00	3.00	131.00	-23.00	0.00	16.00	-61.00
	23.00	10.00	109.00	8.00	0.00	21.00	-50.00
	9.00	7.00	112.00	21.00	-2.00	22.00	-13.00
	0.00	6.00	78.00	6.00	10.00	22.00	12.00
	1.00	8.00	-3.00	0.00	18.00	17.00	18.00
	10.00	7.00	-57.00	-3.00	16.00	12.00	9.00
	20.00	12.00	-78.00	-15.00	16.00	0.00	9.00
	28.00	16.00	-122.00	-17.00	19.00	-2.00	13.00
	37.00	21.00	-22.00	17.00	14.00	-7.00	5.00
	24.00	22.00	106.00	29.00	6.00	-14.00	-5.00
	24.00	28.00	60.00	19.00	3.00	-6.00	-7.00
	26.00	34.00	24.00	28.00	12.00	2.00	-1.00
	30.00	29.00	62.00	17.00	12.00	-1.00	16.00
	11.00	23.00	296.00	10.00	24.00	2.00	26.00
	14.00	0.00	388.00	11.00	18.00	1.00	24.00
	21.00	-5.00	466.00	38.00	6.00	-3.00	19.00
	19.00	-5.00	150.00	32.00	-4.00	15.00	13.00
	1.00	1.00	-221.00	76.00	-5.00	7.00	7.00
	-12.00	23.00	-357.00	63.00	9.00	20.00	11.00
	-30.00	20.00	-278.00	30.00	22.00	28.00	14.00
	-36.00	19.00	-204.00	24.00	25.00	16.00	16.00
	-31.00	28.00	-65.00	1.00	17.00	10.00	18.00
	-36.00	35.00	122.00	-15.00	15.00	10.00	19.00
	-46.00	31.00	-48.00	-30.00	21.00	5.00	9.00
	-36.00	25.00	-175.00	-20.00	19.00	7.00	-4.00
	-19.00	5.00	-158.00	-8.00	9.00	1.00	-5.00
	-18.00	0.00	-167.00	-37.00	7.00	6.00	2.00
	-20.00	15.00	-72.00	-37.00	8.00	1.00	4.00
	-17.00	6.00	100.00	-17.00	29.00	5.00	3.00
	-2.00	-5.00	151.00	4.00	30.00	11.00	19.00
	-11.00	3.00	73.00	-24.00	22.00	10.00	23.00
	-24.00	12.00	-18.00	-4.00	17.00	0.00	21.00
	-25.00	14.00	-78.00	7.00	10.00	-4.00	15.00
	-18.00	14.00	-123.00	14.00	6.00	10.00	10.00
	-35.00	24.00	-127.00	33.00	8.00	21.00	-2.00
	-36.00	18.00	-115.00	-13.00	19.00	38.00	-20.00
	-20.00	15.00	-38.00	-20.00	15.00	28.00	-24.00
	-25.00	9.00	-59.00	-10.00	10.00	15.00	-31.00
	-11.00	7.00	-64.00	-48.00	7.00	6.00	-38.00
	4.00	10.00	52.00	-35.00	0.00	-2.00	-30.00
	15.00	20.00	117.00	-13.00	2.00	-1.00	-5.00
	31.00	18.00	103.00	-16.00	4.00	0.00	5.00
	40.00	1.00	143.00	-3.00	-7.00	-3.00	5.00
	41.00	-6.00	159.00	33.00	4.00	9.00	9.00
	39.00	-2.00	172.00	41.00	14.00	23.00	-4.00
	39.00	12.00	215.00	60.00	12.00	18.00	-15.00
	30.00	28.00	244.00	64.00	7.00	6.00	-19.00
	20.00	24.00	141.00	30.00	21.00	23.00	-35.00
	7.00	26.00	49.00	54.00	31.00	33.00	-22.00
	-22.00	-2.00	-26.00	44.00	23.00	20.00	9.00
	-26.00	-13.00	-22.00	17.00	17.00	24.00	12.00
	-22.00	-9.00	-27.00	1.00	14.00	29.00	7.00
	-22.00	2.00	-104.00	1.00	13.00	27.00	-6.00
	-19.00	20.00	-142.00	5.00	13.00	-4.00	-3.00
	-28.00	24.00	-174.00	-34.00	14.00	-27.00	2.00
	-31.00	44.00	-158.00	-66.00	18.00	-15.00	13.00
	-24.00	49.00	-134.00	-54.00	14.00	7.00	26.00
	-24.00	49.00	12.00	-6.00	9.00	7.00	13.00
	-2.00	47.00	183.00	13.00	5.00	-5.00	-4.00
	12.00	39.00	167.00	23.00	5.00	-20.00	-7.00
	30.00	26.00	111.00	37.00	10.00	-9.00	7.00
	39.00	26.00	68.00	34.00	12.00	21.00	10.00
	37.00	16.00	9.00	18.00	14.00	63.00	11.00
	29.00	11.00	-6.00	9.00	6.00	40.00	3.00
	16.00	16.00	5.00	8.00	0.00	19.00	-1.00
	4.00	7.00	-30.00	-12.00	0.00	34.00	-3.00
	-4.00	2.00	-262.00	-28.00	0.00	34.00	-5.00
	-10.00	-7.00	-313.00	-13.00	5.00	16.00	-1.00
	-15.00	-10.00	-207.00	10.00	13.00	6.00	11.00
	-18.00	-11.00	5.00	22.00	29.00	6.00	18.00
	-9.00	-9.00	224.00	12.00	17.00	-3.00	18.00
	-5.00	4.00	335.00	7.00	6.00	2.00	15.00
	-16.00	18.00	355.00	46.00	7.00	10.00	8.00
	-48.00	27.00	24.00	21.00	15.00	15.00	-11.00
	-62.00	19.00	-347.00	2.00	22.00	12.00	-21.00
	-61.00	11.00	-314.00	-7.00	25.00	5.00	-12.00
	-52.00	0.00	-200.00	-4.00	27.00	8.00	-1.00
	-52.00	-2.00	-98.00	-9.00	16.00	0.00	5.00
	-30.00	2.00	52.00	27.00	7.00	11.00	2.00
	-17.00	5.00	181.00	40.00	14.00	22.00	12.00
	-9.00	-4.00	112.00	17.00	32.00	25.00	15.00
	9.00	3.00	67.00	8.00	20.00	10.00	10.00
	16.00	8.00	9.00	18.00	11.00	-5.00	6.00
	21.00	11.00	-2.00	7.00	7.00	-16.00	-4.00
	40.00	16.00	-78.00	-20.00	11.00	-12.00	-4.00
	54.00	7.00	-45.00	3.00	13.00	-10.00	-12.00
	47.00	11.00	148.00	15.00	8.00	-16.00	-24.00
	52.00	21.00	238.00	-6.00	-2.00	-26.00	-32.00
	56.00	4.00	375.00	-17.00	1.00	-27.00	-25.00
	58.00	-9.00	441.00	-9.00	19.00	-11.00	-5.00
	67.00	-7.00	370.00	-10.00	17.00	-5.00	2.00
	62.00	-3.00	228.00	6.00	8.00	-5.00	1.00
	26.00	4.00	88.00	48.00	19.00	6.00	7.00
	-17.00	19.00	-75.00	45.00	22.00	3.00	13.00
	-43.00	27.00	-192.00	36.00	28.00	15.00	13.00
	-47.00	32.00	-366.00	0.00	18.00	10.00	16.00
	-48.00	39.00	-562.00	-35.00	19.00	7.00	12.00
	-48.00	32.00	-541.00	-32.00	29.00	3.00	0.00
	-41.00	21.00	-258.00	-31.00	18.00	-1.00	-14.00
	-23.00	18.00	-48.00	-28.00	8.00	-1.00	-15.00
	-16.00	22.00	46.00	-4.00	20.00	8.00	-13.00
	-10.00	26.00	78.00	4.00	17.00	12.00	1.00
	-14.00	16.00	-19.00	9.00	0.00	9.00	5.00
	-14.00	24.00	-47.00	24.00	-10.00	8.00	10.00
	-18.00	37.00	-138.00	36.00	-4.00	-6.00	19.00
	-30.00	37.00	-176.00	32.00	2.00	-18.00	15.00
	-34.00	33.00	10.00	19.00	3.00	-42.00	15.00
	-22.00	26.00	88.00	-7.00	7.00	-36.00	12.00
	-17.00	12.00	46.00	-20.00	18.00	-10.00	-1.00
	4.00	9.00	-19.00	-26.00	12.00	2.00	0.00
	23.00	-2.00	67.00	-2.00	10.00	14.00	0.00
	34.00	-18.00	39.00	33.00	11.00	27.00	-22.00
	33.00	-2.00	3.00	51.00	12.00	37.00	-8.00
	19.00	-2.00	158.00	49.00	22.00	39.00	21.00
	5.00	3.00	136.00	26.00	20.00	28.00	26.00
	-3.00	5.00	116.00	21.00	18.00	12.00	8.00
	0.00	12.00	166.00	6.00	24.00	16.00	-2.00
	3.00	16.00	114.00	1.00	25.00	18.00	11.00
	2.00	18.00	80.00	-18.00	16.00	8.00	20.00
	5.00	21.00	55.00	-61.00	1.00	-7.00	20.00
	15.00	14.00	-198.00	-86.00	-2.00	-3.00	20.00
	22.00	5.00	-188.00	-64.00	-8.00	-2.00	-2.00
	41.00	11.00	36.00	-24.00	-10.00	-4.00	-19.00
	55.00	3.00	228.00	22.00	-13.00	14.00	-8.00
	56.00	1.00	386.00	98.00	0.00	19.00	-12.00
	34.00	4.00	558.00	182.00	25.00	8.00	-12.00
	17.00	6.00	368.00	131.00	28.00	0.00	3.00
	5.00	8.00	-41.00	46.00	28.00	3.00	1.00
	-8.00	15.00	-243.00	10.00	20.00	3.00	-8.00
	-28.00	27.00	-346.00	-16.00	12.00	11.00	-25.00
	-35.00	22.00	-345.00	-41.00	10.00	19.00	-27.00
	-48.00	13.00	-353.00	-31.00	4.00	21.00	-20.00
	-44.00	2.00	-307.00	-20.00	8.00	43.00	-25.00
	-21.00	4.00	-233.00	-24.00	14.00	70.00	-25.00
	-1.00	0.00	-177.00	-14.00	8.00	30.00	-6.00
	10.00	-3.00	-47.00	18.00	7.00	4.00	4.00
	22.00	3.00	120.00	42.00	6.00	-7.00	-6.00
	15.00	4.00	323.00	36.00	5.00	-4.00	-16.00
	3.00	2.00	298.00	1.00	8.00	19.00	-15.00
	-13.00	8.00	162.00	-8.00	5.00	17.00	-5.00
	-21.00	16.00	68.00	-22.00	2.00	21.00	1.00
	-2.00	18.00	-24.00	21.00	8.00	31.00	12.00
	25.00	12.00	-12.00	24.00	6.00	23.00	0.00
	20.00	4.00	-39.00	38.00	-5.00	5.00	1.00
	9.00	17.00	-127.00	45.00	5.00	14.00	-2.00
	12.00	10.00	-124.00	23.00	26.00	38.00	-7.00
	-5.00	4.00	-162.00	-13.00	26.00	45.00	-9.00
	-10.00	6.00	-136.00	-2.00	24.00	52.00	8.00
	-36.00	10.00	22.00	37.00	23.00	40.00	21.00
	-57.00	15.00	81.00	-29.00	18.00	24.00	26.00
	-57.00	13.00	-28.00	-68.00	13.00	12.00	24.00
	-62.00	24.00	-69.00	-33.00	9.00	-8.00	27.00
	-64.00	27.00	-157.00	-5.00	7.00	-6.00	35.00
	-62.00	27.00	-72.00	-11.00	16.00	9.00	33.00
	-56.00	29.00	95.00	35.00	27.00	20.00	24.00
	-57.00	36.00	134.00	40.00	21.00	14.00	-3.00
	-59.00	44.00	227.00	38.00	13.00	4.00	-25.00
	-71.00	50.00	205.00	23.00	15.00	2.00	-25.00
	-62.00	53.00	210.00	2.00	4.00	0.00	-20.00
	-44.00	53.00	100.00	-23.00	4.00	-11.00	-12.00
	-13.00	44.00	-39.00	-34.00	0.00	-25.00	-7.00
	5.00	50.00	-13.00	-34.00	-3.00	-37.00	3.00
	2.00	49.00	-2.00	-24.00	-4.00	-24.00	8.00
	10.00	27.00	-37.00	-8.00	-11.00	-14.00	8.00
	5.00	23.00	19.00	36.00	-13.00	-7.00	12.00
	8.00	31.00	61.00	61.00	1.00	22.00	8.00
	-9.00	37.00	-6.00	33.00	32.00	39.00	10.00
	-13.00	39.00	-139.00	-33.00	34.00	36.00	16.00
	-13.00	38.00	-364.00	-54.00	18.00	13.00	19.00
	6.00	37.00	-222.00	-33.00	11.00	11.00	21.00
	38.00	37.00	-17.00	6.00	15.00	24.00	26.00
	51.00	29.00	67.00	22.00	35.00	35.00	21.00
	63.00	19.00	70.00	23.00	34.00	27.00	16.00
	65.00	12.00	59.00	48.00	24.00	14.00	12.00
	65.00	8.00	-116.00	41.00	26.00	7.00	10.00
	80.00	2.00	-90.00	24.00	8.00	-3.00	10.00
	86.00	10.00	-65.00	4.00	4.00	8.00	7.00
	91.00	5.00	-18.00	-14.00	14.00	29.00	0.00
	96.00	-1.00	-17.00	-41.00	20.00	43.00	12.00
	94.00	-8.00	-3.00	-40.00	4.00	31.00	18.00
	108.00	-10.00	12.00	19.00	0.00	19.00	17.00
	107.00	-15.00	53.00	27.00	-5.00	16.00	14.00
	109.00	-14.00	42.00	12.00	-12.00	10.00	-1.00
	108.00	-16.00	28.00	-5.00	-6.00	18.00	-22.00
	100.00	-21.00	126.00	10.00	6.00	18.00	-22.00
	90.00	-20.00	284.00	22.00	3.00	9.00	-19.00
	87.00	-23.00	299.00	7.00	7.00	14.00	-26.00
	2.00	-17.00	234.00	-10.00	14.00	25.00	-28.00
	-59.00	-4.00	163.00	6.00	12.00	12.00	-19.00
	-61.00	9.00	83.00	-3.00	19.00	7.00	-5.00
	-38.00	8.00	-90.00	-41.00	9.00	11.00	2.00
	-42.00	3.00	-146.00	-25.00	13.00	23.00	4.00
	-47.00	-7.00	-132.00	-16.00	11.00	10.00	13.00
	-58.00	-9.00	-79.00	11.00	-5.00	-20.00	10.00
	-44.00	-7.00	-91.00	27.00	-6.00	-17.00	-10.00
	-34.00	0.00	-114.00	82.00	-4.00	-6.00	-13.00
	-40.00	4.00	59.00	111.00	11.00	7.00	-9.00
	-48.00	-3.00	163.00	81.00	30.00	18.00	-1.00
	-33.00	2.00	98.00	27.00	37.00	22.00	6.00
	-21.00	1.00	55.00	29.00	30.00	19.00	14.00
	-15.00	1.00	-27.00	-16.00	9.00	4.00	10.00
	-5.00	6.00	-161.00	-24.00	0.00	12.00	3.00
	-6.00	21.00	-188.00	20.00	8.00	18.00	-23.00
	-8.00	28.00	-247.00	-16.00	16.00	17.00	-6.00
	4.00	17.00	-166.00	-27.00	20.00	15.00	1.00
	12.00	10.00	-33.00	-41.00	21.00	3.00	-3.00
	18.00	11.00	12.00	-48.00	21.00	-10.00	4.00
	40.00	10.00	-2.00	-26.00	9.00	-14.00	10.00
	58.00	16.00	-28.00	-34.00	4.00	-6.00	10.00
	54.00	17.00	-71.00	-14.00	3.00	-10.00	10.00
	37.00	14.00	159.00	44.00	-1.00	-16.00	5.00
	26.00	13.00	236.00	49.00	17.00	7.00	-2.00
	35.00	20.00	321.00	59.00	21.00	24.00	-12.00
	20.00	35.00	247.00	66.00	27.00	20.00	-24.00
	14.00	42.00	141.00	35.00	34.00	14.00	-23.00
	19.00	42.00	101.00	-8.00	28.00	-15.00	-4.00
	7.00	26.00	76.00	-40.00	12.00	-38.00	-3.00
	-4.00	9.00	101.00	-43.00	3.00	-38.00	-7.00
	-15.00	7.00	-39.00	-70.00	3.00	-26.00	-14.00
	-11.00	-4.00	76.00	-78.00	8.00	-11.00	-16.00
	-21.00	19.00	225.00	-87.00	1.00	-15.00	-5.00
	-25.00	26.00	-113.00	-72.00	-8.00	0.00	6.00
	-26.00	24.00	-219.00	13.00	-3.00	30.00	2.00
	-18.00	18.00	-182.00	62.00	32.00	129.00	-11.00
	-35.00	30.00	-91.00	118.00	46.00	112.00	-13.00
	-34.00	15.00	7.00	154.00	9.00	40.00	7.00
	-28.00	-18.00	-73.00	109.00	21.00	43.00	8.00
	-29.00	-8.00	-190.00	99.00	28.00	27.00	13.00
	-42.00	21.00	-184.00	48.00	10.00	-7.00	16.00
	-44.00	16.00	-124.00	28.00	-15.00	-22.00	2.00
	-54.00	16.00	-74.00	18.00	-20.00	12.00	-12.00
	-67.00	20.00	-1.00	42.00	-13.00	31.00	-30.00
	-77.00	22.00	-34.00	20.00	14.00	25.00	-27.00
	-69.00	17.00	-111.00	-9.00	23.00	3.00	-13.00
	-46.00	16.00	-20.00	-11.00	19.00	-8.00	2.00
	-23.00	17.00	90.00	-5.00	15.00	-10.00	8.00
	-19.00	19.00	116.00	-3.00	4.00	8.00	6.00
	-10.00	23.00	66.00	-16.00	7.00	-2.00	0.00
	-2.00	23.00	65.00	-13.00	5.00	-18.00	4.00
	-3.00	14.00	85.00	-8.00	5.00	-23.00	10.00
	-10.00	3.00	-33.00	-23.00	10.00	-18.00	9.00
	-4.00	7.00	-85.00	-27.00	6.00	-11.00	23.00
	1.00	16.00	-59.00	-49.00	8.00	-3.00	2.00
	6.00	27.00	-41.00	-18.00	-8.00	-9.00	-5.00
	2.00	26.00	81.00	14.00	-10.00	2.00	1.00
	-10.00	14.00	135.00	-29.00	0.00	19.00	14.00
	-5.00	16.00	8.00	-45.00	17.00	29.00	13.00
	6.00	21.00	124.00	-2.00	36.00	35.00	9.00
	16.00	27.00	-5.00	24.00	32.00	26.00	12.00
	16.00	24.00	-72.00	47.00	34.00	20.00	13.00
	23.00	17.00	25.00	11.00	21.00	4.00	17.00
	24.00	18.00	33.00	-47.00	18.00	0.00	17.00
	23.00	20.00	73.00	-49.00	13.00	-2.00	18.00
	-7.00	20.00	108.00	-15.00	8.00	-14.00	17.00
	-16.00	14.00	77.00	21.00	6.00	-14.00	16.00
	-22.00	17.00	65.00	58.00	7.00	-9.00	9.00
	-35.00	18.00	-19.00	74.00	30.00	2.00	-8.00
	-45.00	14.00	-79.00	40.00	49.00	14.00	-3.00
	-47.00	10.00	-70.00	-4.00	35.00	12.00	9.00
	-46.00	9.00	-44.00	-6.00	22.00	1.00	18.00
	-38.00	9.00	-13.00	2.00	22.00	2.00	25.00
	-24.00	8.00	-27.00	-9.00	12.00	-8.00	28.00
	-5.00	14.00	-61.00	-25.00	11.00	-8.00	23.00
	2.00	13.00	-26.00	-20.00	5.00	-5.00	-11.00
	10.00	0.00	116.00	-21.00	5.00	5.00	-57.00
	26.00	-6.00	139.00	-19.00	8.00	7.00	-61.00
	41.00	12.00	193.00	-12.00	4.00	7.00	-48.00
	68.00	13.00	96.00	0.00	0.00	4.00	-49.00
	81.00	5.00	-14.00	15.00	7.00	25.00	-45.00
	77.00	2.00	19.00	30.00	20.00	68.00	-35.00
	67.00	8.00	61.00	29.00	7.00	28.00	-13.00
	39.00	22.00	67.00	55.00	-3.00	0.00	-9.00
	-11.00	36.00	-88.00	58.00	3.00	-4.00	-16.00
	-32.00	28.00	-282.00	14.00	11.00	11.00	-18.00
	-66.00	20.00	-229.00	-18.00	13.00	6.00	-7.00
	-81.00	19.00	51.00	-24.00	34.00	15.00	0.00
	-50.00	20.00	208.00	14.00	45.00	34.00	7.00
	-41.00	20.00	-81.00	-10.00	40.00	29.00	8.00
	-51.00	12.00	-270.00	-35.00	39.00	9.00	11.00
	-44.00	9.00	-181.00	-34.00	20.00	-4.00	14.00
	-29.00	17.00	-121.00	-7.00	5.00	-1.00	12.00
	-14.00	19.00	-158.00	2.00	-3.00	23.00	9.00
	-11.00	22.00	-206.00	17.00	0.00	29.00	9.00
	-4.00	20.00	-171.00	-42.00	-13.00	-7.00	6.00
	0.00	28.00	-9.00	-42.00	-23.00	-34.00	2.00
	0.00	30.00	156.00	-13.00	-25.00	-39.00	2.00
	20.00	30.00	396.00	15.00	-23.00	-22.00	10.00
	20.00	-5.00	557.00	85.00	-10.00	14.00	22.00
	7.00	-17.00	537.00	84.00	32.00	37.00	11.00
	0.00	-1.00	220.00	98.00	47.00	37.00	-9.00
	6.00	7.00	-76.00	58.00	31.00	21.00	-3.00
	25.00	15.00	-294.00	12.00	19.00	8.00	17.00
	32.00	29.00	-319.00	18.00	23.00	20.00	19.00
	28.00	25.00	-290.00	25.00	30.00	27.00	7.00
	28.00	23.00	-156.00	-4.00	35.00	28.00	6.00
	16.00	17.00	-54.00	-15.00	29.00	7.00	8.00
	12.00	9.00	-20.00	-4.00	19.00	1.00	1.00
	31.00	16.00	-35.00	6.00	19.00	2.00	-10.00
	32.00	14.00	56.00	32.00	10.00	-13.00	-21.00
	33.00	2.00	184.00	33.00	2.00	-17.00	-11.00
	33.00	-2.00	194.00	33.00	-3.00	0.00	-5.00
	21.00	8.00	198.00	20.00	0.00	16.00	5.00
	-10.00	16.00	141.00	53.00	4.00	15.00	5.00
	-24.00	17.00	36.00	11.00	13.00	21.00	-3.00
	-24.00	11.00	-124.00	-21.00	10.00	16.00	-6.00
	-30.00	12.00	-163.00	-45.00	11.00	6.00	1.00
	-24.00	17.00	-138.00	-52.00	9.00	-8.00	3.00
	-24.00	13.00	-88.00	-30.00	-1.00	-21.00	4.00
	-20.00	0.00	28.00	-24.00	2.00	-9.00	2.00
	-13.00	-4.00	-156.00	-12.00	-3.00	-6.00	-4.00
	-2.00	6.00	-256.00	-31.00	10.00	8.00	2.00
	14.00	19.00	-64.00	-34.00	8.00	8.00	24.00
	17.00	23.00	287.00	-27.00	-4.00	-8.00	26.00
	17.00	7.00	367.00	5.00	-5.00	-1.00	10.00
	12.00	8.00	338.00	56.00	1.00	19.00	14.00
	11.00	19.00	134.00	80.00	12.00	35.00	12.00
	6.00	23.00	-80.00	75.00	15.00	35.00	3.00
	2.00	18.00	-135.00	74.00	33.00	47.00	-10.00
	-4.00	17.00	-171.00	88.00	29.00	33.00	-13.00
	-2.00	15.00	-250.00	53.00	20.00	19.00	-22.00
	8.00	3.00	-28.00	23.00	17.00	12.00	-25.00
	35.00	-3.00	139.00	-9.00	19.00	17.00	-8.00
	31.00	7.00	262.00	-5.00	21.00	13.00	-3.00
	34.00	16.00	266.00	-5.00	19.00	11.00	-9.00
	45.00	10.00	94.00	-16.00	22.00	4.00	-14.00
	62.00	-3.00	4.00	-32.00	9.00	9.00	-5.00
	63.00	8.00	71.00	-12.00	-1.00	9.00	8.00
	32.00	20.00	91.00	-26.00	5.00	24.00	12.00
	-9.00	17.00	36.00	-50.00	11.00	20.00	8.00
	-31.00	16.00	-48.00	-55.00	11.00	16.00	17.00
	-38.00	17.00	-140.00	10.00	12.00	21.00	23.00
	-54.00	19.00	-257.00	43.00	15.00	35.00	-7.00
	-70.00	17.00	-281.00	50.00	14.00	36.00	-10.00
	-69.00	13.00	-300.00	45.00	17.00	30.00	-1.00
	-73.00	14.00	-249.00	13.00	17.00	16.00	-4.00
	-61.00	14.00	-131.00	-14.00	7.00	8.00	-7.00
	-52.00	12.00	-69.00	-32.00	1.00	-12.00	-4.00
	-47.00	12.00	-17.00	-18.00	16.00	-20.00	11.00
	-35.00	12.00	-41.00	-18.00	13.00	-17.00	14.00
	-22.00	15.00	-46.00	-25.00	20.00	4.00	9.00
	1.00	13.00	2.00	-28.00	16.00	13.00	-5.00
	11.00	12.00	50.00	-27.00	2.00	14.00	-13.00
	10.00	15.00	101.00	-9.00	0.00	15.00	-12.00
	19.00	16.00	88.00	2.00	-5.00	23.00	-9.00
	26.00	15.00	37.00	5.00	0.00	68.00	-9.00
	28.00	14.00	-36.00	-3.00	11.00	41.00	-2.00
	25.00	10.00	62.00	9.00	16.00	-6.00	4.00
	38.00	10.00	68.00	-19.00	25.00	-46.00	7.00
	65.00	8.00	80.00	-57.00	11.00	-65.00	13.00
	69.00	3.00	147.00	-31.00	8.00	-42.00	13.00
	68.00	12.00	294.00	3.00	5.00	-15.00	-1.00
	65.00	15.00	472.00	45.00	6.00	-2.00	-6.00
	46.00	19.00	495.00	101.00	2.00	47.00	-2.00
	22.00	22.00	222.00	61.00	13.00	65.00	3.00
	3.00	24.00	-277.00	12.00	13.00	59.00	-1.00
	-3.00	15.00	-521.00	-14.00	9.00	26.00	-2.00
	-17.00	2.00	-360.00	-6.00	12.00	8.00	-12.00
	-27.00	13.00	-153.00	-9.00	32.00	27.00	-28.00
	-33.00	9.00	26.00	10.00	38.00	48.00	-6.00
	-39.00	14.00	226.00	91.00	21.00	56.00	-2.00
	-55.00	22.00	174.00	80.00	49.00	52.00	-1.00
	-55.00	18.00	-50.00	35.00	43.00	32.00	6.00
	-43.00	15.00	-61.00	35.00	11.00	-7.00	14.00
	-31.00	11.00	-45.00	4.00	2.00	-9.00	25.00
	-17.00	9.00	-24.00	1.00	2.00	-7.00	10.00
	-7.00	18.00	19.00	-3.00	8.00	-10.00	-22.00
	17.00	28.00	83.00	-3.00	7.00	-15.00	-15.00
	38.00	15.00	120.00	4.00	18.00	-7.00	2.00
	32.00	-13.00	155.00	12.00	7.00	-20.00	-8.00
	39.00	1.00	194.00	21.00	15.00	-31.00	-13.00
	51.00	26.00	173.00	-5.00	13.00	-24.00	-6.00
	52.00	31.00	42.00	-14.00	12.00	-20.00	-1.00
	29.00	18.00	-51.00	-18.00	10.00	-11.00	3.00
	25.00	5.00	-184.00	-49.00	3.00	2.00	-2.00
	22.00	10.00	-232.00	-31.00	4.00	13.00	-1.00
	0.00	-1.00	-204.00	24.00	5.00	24.00	-3.00
	-13.00	4.00	-71.00	35.00	-4.00	11.00	-4.00
	-7.00	7.00	-15.00	-18.00	-16.00	4.00	-6.00
	-29.00	17.00	-48.00	1.00	-10.00	10.00	3.00
	-38.00	22.00	-248.00	-15.00	-5.00	11.00	2.00
	-41.00	25.00	-287.00	-32.00	-4.00	14.00	-6.00
	-33.00	24.00	-105.00	51.00	1.00	26.00	3.00
	-31.00	19.00	-45.00	60.00	30.00	43.00	6.00
	-26.00	19.00	-2.00	54.00	24.00	32.00	7.00
	-31.00	22.00	-28.00	27.00	16.00	28.00	9.00
	-26.00	18.00	27.00	12.00	5.00	6.00	9.00
	-28.00	18.00	75.00	0.00	-3.00	-4.00	6.00
	-32.00	16.00	18.00	-33.00	-4.00	-38.00	9.00
	-21.00	10.00	33.00	-22.00	-21.00	-70.00	-4.00
	-10.00	12.00	90.00	-14.00	7.00	-44.00	-1.00
	-11.00	13.00	6.00	-33.00	25.00	-23.00	-6.00
	4.00	11.00	121.00	-42.00	17.00	-17.00	-14.00
	38.00	7.00	241.00	-52.00	2.00	2.00	0.00
	43.00	12.00	391.00	3.00	9.00	39.00	9.00
	44.00	22.00	403.00	31.00	21.00	76.00	7.00
	15.00	25.00	88.00	79.00	25.00	107.00	0.00
	-18.00	19.00	-192.00	19.00	31.00	61.00	-1.00
	-26.00	5.00	-291.00	-12.00	24.00	15.00	4.00
	-12.00	5.00	-178.00	10.00	13.00	-5.00	-2.00
	-6.00	16.00	-37.00	47.00	4.00	-2.00	5.00
	0.00	16.00	19.00	52.00	7.00	-3.00	13.00
	20.00	10.00	-7.00	27.00	12.00	2.00	20.00
	20.00	7.00	-121.00	-4.00	18.00	0.00	0.00
	15.00	8.00	-117.00	-35.00	22.00	-3.00	-9.00
	2.00	9.00	-34.00	-24.00	18.00	-8.00	-7.00
	-8.00	6.00	117.00	-16.00	22.00	8.00	10.00
	-9.00	7.00	240.00	24.00	19.00	18.00	12.00
	-26.00	13.00	148.00	30.00	24.00	35.00	7.00
	-35.00	17.00	73.00	22.00	20.00	30.00	0.00
	-48.00	12.00	-44.00	22.00	17.00	20.00	0.00
	-50.00	20.00	-215.00	-10.00	13.00	11.00	-3.00
	-52.00	29.00	-252.00	-38.00	5.00	4.00	-15.00
	-43.00	20.00	-195.00	-27.00	6.00	-6.00	-18.00
	-21.00	15.00	-123.00	-14.00	5.00	-11.00	-9.00
	12.00	23.00	-13.00	-11.00	5.00	-10.00	1.00
	38.00	22.00	-45.00	-11.00	1.00	-9.00	6.00
	50.00	9.00	1.00	14.00	7.00	2.00	4.00
	58.00	1.00	169.00	17.00	24.00	19.00	7.00
	75.00	13.00	250.00	41.00	31.00	22.00	11.00
	90.00	30.00	293.00	69.00	9.00	-10.00	9.00
	98.00	24.00	264.00	56.00	4.00	-2.00	-11.00
	87.00	18.00	187.00	46.00	14.00	-2.00	-12.00
	73.00	18.00	34.00	3.00	21.00	-4.00	-4.00
	40.00	17.00	-64.00	-25.00	23.00	-2.00	-3.00
	13.00	13.00	-110.00	-37.00	14.00	-1.00	-3.00
	-3.00	16.00	-158.00	-39.00	12.00	15.00	0.00
	-15.00	19.00	-202.00	12.00	10.00	28.00	0.00
	-33.00	22.00	-159.00	30.00	4.00	17.00	1.00
	-41.00	22.00	-194.00	17.00	-7.00	-1.00	6.00
	-36.00	14.00	-45.00	29.00	-8.00	-7.00	14.00
	-15.00	18.00	119.00	13.00	-8.00	-12.00	14.00
	0.00	13.00	213.00	15.00	-20.00	-21.00	17.00
	15.00	2.00	223.00	17.00	-11.00	0.00	3.00
	27.00	10.00	151.00	61.00	11.00	23.00	-5.00
	13.00	13.00	169.00	34.00	46.00	37.00	2.00
	2.00	15.00	206.00	-2.00	31.00	53.00	4.00
	10.00	10.00	58.00	-5.00	28.00	58.00	8.00
	-5.00	15.00	-46.00	-41.00	31.00	33.00	5.00
	-7.00	8.00	-146.00	-52.00	37.00	31.00	3.00
	-10.00	8.00	-299.00	-21.00	20.00	23.00	13.00
	-27.00	9.00	-230.00	31.00	12.00	30.00	6.00
	-22.00	9.00	-169.00	32.00	3.00	32.00	8.00
	-41.00	9.00	-101.00	-2.00	2.00	4.00	-2.00
	-32.00	14.00	-7.00	-22.00	2.00	-4.00	-1.00
	-27.00	23.00	-26.00	-29.00	0.00	-18.00	-5.00
	-14.00	33.00	-46.00	-36.00	-2.00	-23.00	-14.00
	-6.00	35.00	-184.00	-44.00	4.00	-22.00	-10.00
	-8.00	15.00	-125.00	-51.00	1.00	-26.00	0.00
	-8.00	-25.00	-17.00	-57.00	0.00	-13.00	5.00
	-5.00	-16.00	104.00	22.00	2.00	-16.00	11.00
	3.00	19.00	264.00	88.00	19.00	-3.00	8.00
	23.00	26.00	287.00	119.00	22.00	17.00	10.00
	24.00	41.00	133.00	106.00	26.00	27.00	12.00
	11.00	22.00	98.00	52.00	31.00	28.00	3.00
	3.00	-3.00	122.00	15.00	24.00	20.00	-25.00
	9.00	-2.00	-30.00	-26.00	9.00	13.00	-21.00
	2.00	3.00	-51.00	2.00	12.00	22.00	-4.00
	-11.00	6.00	-77.00	-7.00	12.00	-17.00	-7.00
	-14.00	1.00	-30.00	-29.00	14.00	-60.00	-18.00
	-5.00	0.00	0.00	-17.00	7.00	-67.00	-11.00
	-9.00	7.00	37.00	2.00	15.00	-41.00	-4.00
	-3.00	13.00	-50.00	-14.00	10.00	-24.00	-2.00
	-2.00	22.00	-88.00	4.00	21.00	26.00	-1.00
	-17.00	25.00	-39.00	63.00	16.00	62.00	-9.00
	-25.00	21.00	69.00	63.00	13.00	128.00	-28.00
	-12.00	10.00	152.00	26.00	10.00	127.00	-19.00
	6.00	5.00	230.00	5.00	20.00	54.00	-2.00
	7.00	11.00	334.00	-8.00	27.00	10.00	2.00
	18.00	27.00	267.00	-3.00	19.00	-12.00	-14.00
	17.00	24.00	171.00	16.00	30.00	4.00	-8.00
	16.00	5.00	198.00	9.00	13.00	4.00	-1.00
	26.00	6.00	55.00	15.00	8.00	22.00	0.00
	9.00	15.00	-187.00	37.00	2.00	25.00	4.00
	-24.00	21.00	-307.00	19.00	1.00	14.00	7.00
	-28.00	17.00	-370.00	-3.00	4.00	9.00	8.00
	-28.00	15.00	-296.00	37.00	15.00	27.00	12.00
	-22.00	21.00	-286.00	22.00	0.00	16.00	13.00
	-11.00	18.00	-211.00	2.00	-6.00	6.00	13.00
	-14.00	20.00	-74.00	7.00	5.00	5.00	0.00
	-15.00	17.00	-23.00	4.00	10.00	4.00	-10.00
	9.00	7.00	-29.00	12.00	2.00	-1.00	-11.00
	14.00	3.00	54.00	21.00	5.00	-4.00	-6.00
	14.00	5.00	125.00	6.00	17.00	6.00	-3.00
	7.00	9.00	84.00	-11.00	14.00	9.00	8.00
	-10.00	12.00	33.00	-12.00	0.00	-9.00	11.00
	-41.00	22.00	-133.00	-38.00	2.00	-10.00	7.00
	-39.00	19.00	-237.00	-41.00	1.00	-9.00	5.00
	-25.00	20.00	-266.00	-31.00	9.00	1.00	-4.00
	-19.00	14.00	-249.00	-46.00	19.00	24.00	-27.00
	-38.00	16.00	10.00	7.00	26.00	14.00	-35.00
	-29.00	22.00	181.00	26.00	23.00	-2.00	-1.00
	-11.00	21.00	325.00	8.00	13.00	-9.00	13.00
	2.00	16.00	322.00	18.00	3.00	-11.00	14.00
	12.00	3.00	228.00	0.00	-5.00	-8.00	21.00
	17.00	-2.00	176.00	-38.00	-1.00	4.00	34.00
	10.00	7.00	-54.00	-26.00	29.00	28.00	24.00
	-2.00	19.00	-161.00	-40.00	18.00	9.00	12.00
	-2.00	33.00	-41.00	-54.00	23.00	10.00	18.00
	-8.00	26.00	-24.00	17.00	27.00	6.00	27.00
	-12.00	9.00	43.00	84.00	16.00	7.00	11.00
	4.00	-2.00	61.00	73.00	0.00	16.00	3.00
	16.00	2.00	-47.00	56.00	10.00	26.00	7.00
	7.00	12.00	-69.00	64.00	29.00	28.00	1.00
	18.00	15.00	-118.00	31.00	20.00	3.00	-1.00
	25.00	21.00	-28.00	11.00	26.00	-9.00	8.00
	16.00	23.00	80.00	-14.00	18.00	-3.00	6.00
	10.00	21.00	128.00	-11.00	5.00	-2.00	4.00
	6.00	16.00	115.00	-11.00	1.00	-6.00	1.00
	10.00	10.00	24.00	-24.00	-1.00	-8.00	4.00
	15.00	18.00	-28.00	-16.00	5.00	-17.00	1.00
	20.00	13.00	20.00	-12.00	3.00	-3.00	-9.00
	24.00	14.00	117.00	-9.00	9.00	-8.00	-12.00
	28.00	12.00	114.00	16.00	11.00	-9.00	-8.00
	38.00	12.00	215.00	33.00	16.00	0.00	-9.00
	33.00	6.00	111.00	40.00	11.00	9.00	0.00
	23.00	2.00	-88.00	37.00	1.00	30.00	-8.00
	21.00	9.00	-113.00	17.00	6.00	94.00	-2.00
	19.00	19.00	-124.00	-28.00	4.00	69.00	0.00
	4.00	10.00	-119.00	-28.00	0.00	21.00	-16.00
	-12.00	0.00	-220.00	-63.00	0.00	-1.00	-15.00
	-18.00	15.00	-269.00	-48.00	0.00	-4.00	-8.00
	-27.00	24.00	-134.00	-28.00	5.00	0.00	-10.00
	-27.00	18.00	-131.00	-55.00	17.00	26.00	-20.00
	-26.00	5.00	22.00	-23.00	26.00	38.00	-6.00
	-15.00	12.00	248.00	48.00	23.00	22.00	0.00
	0.00	13.00	231.00	59.00	36.00	21.00	-7.00
	21.00	14.00	177.00	55.00	43.00	26.00	-22.00
	17.00	28.00	61.00	44.00	32.00	5.00	-23.00
	23.00	18.00	8.00	66.00	21.00	7.00	-24.00
	18.00	1.00	137.00	84.00	14.00	13.00	-13.00
	4.00	0.00	178.00	121.00	8.00	18.00	0.00
	-19.00	11.00	145.00	125.00	11.00	6.00	-7.00
	-36.00	11.00	28.00	36.00	14.00	8.00	-20.00
	-34.00	19.00	-129.00	-6.00	16.00	9.00	-21.00
	-16.00	17.00	-122.00	4.00	25.00	14.00	3.00
	-21.00	12.00	-143.00	4.00	14.00	-7.00	13.00
	-25.00	9.00	-121.00	-31.00	12.00	-8.00	10.00
	-13.00	9.00	-31.00	-44.00	11.00	-16.00	-14.00
	-11.00	8.00	9.00	-41.00	2.00	-24.00	-25.00
	-12.00	11.00	21.00	-34.00	-2.00	-17.00	-18.00
	-14.00	10.00	71.00	6.00	0.00	-6.00	2.00
	-7.00	10.00	131.00	48.00	-1.00	-3.00	5.00
	2.00	15.00	-4.00	31.00	5.00	12.00	3.00
	8.00	22.00	-47.00	-11.00	14.00	11.00	2.00
	15.00	12.00	-57.00	-30.00	6.00	1.00	-1.00
	22.00	18.00	152.00	-33.00	7.00	-1.00	5.00
	43.00	23.00	143.00	-10.00	3.00	-8.00	11.00
	32.00	10.00	27.00	-46.00	6.00	-4.00	14.00
	27.00	14.00	25.00	-41.00	5.00	4.00	11.00
	8.00	11.00	159.00	4.00	11.00	-3.00	16.00
	5.00	6.00	80.00	-6.00	15.00	4.00	14.00
	-2.00	-4.00	-20.00	35.00	31.00	27.00	0.00
	-29.00	5.00	-166.00	54.00	44.00	33.00	1.00
	-35.00	29.00	-332.00	28.00	67.00	56.00	17.00
	-27.00	33.00	-370.00	-12.00	30.00	40.00	16.00
	-41.00	29.00	-312.00	-17.00	31.00	37.00	20.00
	-42.00	20.00	-134.00	-23.00	25.00	22.00	21.00
	-27.00	16.00	-72.00	-27.00	8.00	17.00	27.00
	-4.00	12.00	-40.00	11.00	1.00	-5.00	15.00
	7.00	12.00	1.00	12.00	3.00	-13.00	9.00
	21.00	11.00	53.00	-5.00	13.00	0.00	15.00
	20.00	12.00	69.00	-2.00	9.00	-5.00	16.00
	14.00	15.00	73.00	5.00	15.00	-5.00	12.00
	24.00	15.00	65.00	11.00	-5.00	-13.00	-23.00
	34.00	13.00	95.00	0.00	-2.00	6.00	-37.00
	39.00	14.00	139.00	-14.00	2.00	19.00	-13.00
	23.00	12.00	79.00	-25.00	0.00	17.00	-3.00
	9.00	9.00	67.00	-11.00	0.00	4.00	-3.00
	6.00	4.00	88.00	2.00	2.00	-3.00	-12.00
	-2.00	5.00	15.00	19.00	-5.00	3.00	2.00
	-35.00	15.00	68.00	74.00	6.00	14.00	8.00
	-49.00	13.00	127.00	82.00	19.00	37.00	7.00
	-48.00	23.00	48.00	43.00	8.00	33.00	15.00
	-61.00	28.00	-48.00	1.00	7.00	29.00	13.00
	-63.00	30.00	-60.00	-15.00	13.00	24.00	7.00
	-35.00	29.00	-1.00	-17.00	11.00	20.00	3.00
	-11.00	31.00	1.00	-39.00	10.00	15.00	-4.00
	1.00	29.00	19.00	-8.00	5.00	3.00	-5.00
	5.00	20.00	11.00	10.00	9.00	11.00	-1.00
	14.00	13.00	-40.00	-10.00	0.00	9.00	2.00
	18.00	18.00	-76.00	-20.00	4.00	6.00	1.00
	15.00	24.00	-46.00	6.00	9.00	4.00	6.00
	7.00	16.00	13.00	14.00	12.00	-11.00	6.00
	18.00	13.00	46.00	-2.00	16.00	-23.00	5.00
	25.00	10.00	84.00	-50.00	14.00	-17.00	4.00
	26.00	11.00	126.00	-29.00	10.00	-3.00	3.00
	42.00	11.00	70.00	-8.00	5.00	-3.00	6.00
	57.00	3.00	104.00	16.00	3.00	12.00	8.00
	79.00	4.00	294.00	105.00	-5.00	7.00	17.00
	80.00	17.00	254.00	137.00	7.00	46.00	18.00
	57.00	5.00	145.00	73.00	7.00	44.00	20.00
	24.00	-3.00	-82.00	16.00	17.00	31.00	10.00
	-1.00	8.00	-281.00	-13.00	18.00	24.00	4.00
	-30.00	23.00	-232.00	6.00	15.00	21.00	1.00
	-55.00	30.00	-195.00	-19.00	21.00	18.00	-32.00
	-58.00	23.00	-212.00	-4.00	22.00	14.00	-39.00
	-55.00	24.00	-122.00	-40.00	9.00	0.00	-18.00
	-49.00	24.00	-11.00	-60.00	7.00	-17.00	-3.00
	-40.00	16.00	-30.00	-32.00	5.00	-21.00	4.00
	-20.00	13.00	6.00	-8.00	5.00	-8.00	8.00
	-2.00	-1.00	88.00	31.00	10.00	28.00	12.00
	14.00	-2.00	95.00	38.00	22.00	62.00	18.00
	16.00	9.00	-37.00	24.00	36.00	39.00	18.00
	15.00	11.00	-120.00	76.00	15.00	1.00	14.00
	4.00	8.00	-10.00	61.00	-2.00	-21.00	11.00
	19.00	15.00	149.00	46.00	-2.00	-12.00	9.00
	13.00	37.00	160.00	66.00	9.00	-9.00	-1.00
	3.00	29.00	75.00	10.00	33.00	15.00	-20.00
	-8.00	12.00	4.00	2.00	32.00	12.00	-27.00
	-2.00	-4.00	-176.00	-15.00	15.00	11.00	-18.00
	6.00	8.00	-83.00	-36.00	18.00	18.00	-4.00
	20.00	22.00	59.00	-24.00	5.00	23.00	2.00
	2.00	22.00	5.00	-11.00	2.00	28.00	-4.00
	-14.00	16.00	-73.00	22.00	-2.00	-11.00	-14.00
	-12.00	12.00	22.00	28.00	-7.00	-23.00	-8.00
	-12.00	11.00	-69.00	-13.00	6.00	-7.00	-3.00
	4.00	12.00	-64.00	-19.00	15.00	8.00	4.00
	11.00	4.00	7.00	-47.00	9.00	11.00	-1.00
	11.00	-16.00	46.00	-17.00	17.00	13.00	1.00
	1.00	-17.00	20.00	-17.00	15.00	4.00	-2.00
	7.00	-9.00	63.00	-16.00	8.00	1.00	1.00
	7.00	-1.00	143.00	16.00	7.00	3.00	-1.00
	17.00	3.00	85.00	13.00	26.00	12.00	-12.00
	27.00	15.00	67.00	-14.00	19.00	4.00	-12.00
	44.00	21.00	82.00	-33.00	6.00	-4.00	-6.00
	44.00	20.00	68.00	-23.00	7.00	-6.00	-2.00
	33.00	12.00	28.00	12.00	10.00	-6.00	0.00
	37.00	15.00	-49.00	22.00	10.00	-2.00	-1.00
	14.00	24.00	-53.00	78.00	4.00	-22.00	1.00
	-13.00	22.00	-83.00	49.00	21.00	-16.00	5.00
	-22.00	26.00	-77.00	-5.00	33.00	-4.00	12.00
	-19.00	24.00	-4.00	-38.00	27.00	3.00	18.00
	-9.00	24.00	150.00	-44.00	15.00	-7.00	23.00
	-5.00	17.00	162.00	-28.00	0.00	-7.00	17.00
	-9.00	10.00	204.00	2.00	7.00	37.00	12.00
	-12.00	9.00	71.00	15.00	12.00	78.00	0.00
	-16.00	17.00	-55.00	59.00	3.00	77.00	-1.00
	-17.00	19.00	-168.00	47.00	5.00	50.00	-10.00
	-44.00	15.00	-319.00	10.00	6.00	29.00	-15.00
	-46.00	14.00	-340.00	7.00	-3.00	14.00	-7.00
	-39.00	25.00	-204.00	27.00	6.00	15.00	2.00
	-10.00	31.00	-37.00	43.00	24.00	18.00	1.00
	2.00	25.00	114.00	66.00	11.00	2.00	0.00
	8.00	14.00	112.00	36.00	8.00	-8.00	2.00
	18.00	10.00	-10.00	-5.00	20.00	-7.00	-4.00
	22.00	11.00	-44.00	9.00	25.00	9.00	-35.00
	16.00	10.00	-32.00	21.00	1.00	-11.00	-39.00
	14.00	0.00	94.00	-21.00	7.00	-10.00	-10.00
	15.00	1.00	161.00	-48.00	10.00	-4.00	-2.00
	2.00	3.00	99.00	-18.00	13.00	5.00	-6.00
	-4.00	9.00	85.00	3.00	10.00	10.00	1.00
	-7.00	22.00	38.00	71.00	7.00	-2.00	2.00
	-39.00	20.00	42.00	55.00	28.00	5.00	-3.00
	-60.00	19.00	128.00	38.00	37.00	8.00	-2.00
	-58.00	22.00	28.00	8.00	23.00	15.00	6.00
	-55.00	24.00	-116.00	-32.00	11.00	7.00	12.00
	-38.00	22.00	-121.00	-30.00	5.00	-21.00	16.00
	-7.00	15.00	-54.00	-27.00	3.00	1.00	12.00
	-6.00	15.00	-11.00	5.00	0.00	0.00	4.00
	4.00	16.00	23.00	1.00	3.00	-13.00	2.00
	6.00	9.00	64.00	5.00	8.00	-2.00	-1.00
	3.00	19.00	48.00	23.00	8.00	44.00	10.00
	-6.00	18.00	22.00	28.00	17.00	72.00	8.00
	-4.00	12.00	40.00	17.00	22.00	58.00	12.00
	0.00	6.00	71.00	3.00	7.00	19.00	9.00
	8.00	12.00	89.00	-7.00	6.00	4.00	-3.00
	2.00	12.00	120.00	-8.00	22.00	13.00	4.00
	0.00	11.00	-73.00	-3.00	22.00	14.00	6.00
	4.00	6.00	-262.00	-58.00	8.00	-4.00	3.00
	1.00	5.00	-286.00	-69.00	2.00	-8.00	-10.00
	11.00	14.00	-116.00	-37.00	-4.00	-4.00	-5.00
	6.00	13.00	-30.00	-9.00	-8.00	2.00	2.00
	-3.00	7.00	-27.00	36.00	-1.00	29.00	4.00
	-14.00	12.00	75.00	91.00	13.00	37.00	5.00
	-26.00	18.00	185.00	85.00	28.00	36.00	2.00
	-6.00	14.00	142.00	31.00	18.00	19.00	0.00
	18.00	7.00	193.00	2.00	3.00	0.00	0.00
	31.00	8.00	287.00	21.00	14.00	-2.00	4.00
	29.00	10.00	92.00	-2.00	10.00	5.00	13.00
	12.00	21.00	-153.00	15.00	7.00	-4.00	14.00
	-10.00	25.00	-111.00	26.00	12.00	2.00	4.00
	-4.00	13.00	-129.00	-4.00	19.00	24.00	-4.00
	-9.00	13.00	-130.00	2.00	15.00	16.00	-11.00
	-28.00	16.00	-78.00	15.00	7.00	7.00	-7.00
	-34.00	14.00	-98.00	-28.00	15.00	14.00	-3.00
	-14.00	12.00	-91.00	-52.00	14.00	10.00	11.00
	-8.00	13.00	-73.00	-40.00	7.00	1.00	15.00
	-7.00	10.00	-68.00	-15.00	11.00	-6.00	10.00
	0.00	8.00	-101.00	19.00	13.00	-3.00	2.00
	4.00	12.00	-12.00	39.00	20.00	-8.00	3.00
	12.00	16.00	57.00	14.00	16.00	-14.00	11.00
	21.00	10.00	44.00	-13.00	19.00	-14.00	12.00
	28.00	8.00	144.00	-25.00	12.00	-24.00	-1.00
	30.00	13.00	212.00	-37.00	6.00	-20.00	-5.00
	39.00	22.00	217.00	8.00	15.00	0.00	-5.00
	33.00	17.00	271.00	73.00	15.00	23.00	14.00
	19.00	15.00	262.00	85.00	17.00	33.00	35.00
	10.00	12.00	146.00	44.00	18.00	29.00	37.00
	3.00	9.00	50.00	46.00	38.00	24.00	31.00
	9.00	27.00	-126.00	-3.00	22.00	3.00	26.00
	25.00	38.00	-112.00	-12.00	17.00	13.00	13.00
	14.00	26.00	-77.00	-28.00	17.00	15.00	-12.00
	6.00	6.00	-55.00	-44.00	11.00	-1.00	-27.00
	12.00	4.00	96.00	17.00	-3.00	0.00	-19.00
	2.00	9.00	61.00	58.00	-8.00	-7.00	-6.00
	-19.00	24.00	-111.00	12.00	7.00	6.00	-8.00
	-15.00	19.00	-227.00	-15.00	1.00	-3.00	-4.00
	-9.00	14.00	-186.00	-40.00	3.00	5.00	-4.00
	0.00	5.00	-87.00	-9.00	23.00	11.00	4.00
	2.00	18.00	-6.00	-3.00	18.00	-5.00	5.00
	10.00	13.00	-47.00	11.00	18.00	6.00	1.00
	21.00	11.00	14.00	49.00	16.00	23.00	0.00
	13.00	11.00	75.00	49.00	20.00	40.00	6.00
	4.00	9.00	2.00	24.00	24.00	91.00	4.00
	-5.00	10.00	-14.00	4.00	16.00	52.00	8.00
	-15.00	9.00	-6.00	-16.00	11.00	25.00	4.00
	-24.00	11.00	-88.00	-38.00	11.00	18.00	-1.00
	-41.00	18.00	-80.00	-27.00	14.00	16.00	-2.00
	-60.00	18.00	-78.00	-32.00	10.00	21.00	-3.00
	-61.00	26.00	7.00	17.00	5.00	5.00	-1.00
	-54.00	25.00	33.00	24.00	15.00	5.00	3.00
	-29.00	26.00	-173.00	-31.00	18.00	5.00	11.00
	-1.00	12.00	-249.00	-54.00	17.00	-2.00	5.00
	9.00	10.00	-90.00	-11.00	4.00	-15.00	-14.00
	14.00	10.00	147.00	2.00	10.00	7.00	-12.00
	28.00	11.00	331.00	8.00	3.00	7.00	0.00
	40.00	4.00	453.00	93.00	12.00	10.00	4.00
	27.00	7.00	306.00	110.00	13.00	4.00	-11.00
	12.00	9.00	62.00	86.00	20.00	24.00	-22.00
	-12.00	13.00	-109.00	84.00	29.00	24.00	-15.00
	-22.00	19.00	-92.00	57.00	28.00	12.00	-6.00
	-18.00	21.00	51.00	5.00	9.00	-9.00	-7.00
	9.00	23.00	13.00	-66.00	-2.00	-23.00	-5.00
	16.00	20.00	-18.00	-86.00	-3.00	-31.00	-4.00
	17.00	7.00	-11.00	-50.00	-5.00	-31.00	-2.00
	26.00	-2.00	54.00	-5.00	-18.00	-19.00	-7.00
	30.00	8.00	-8.00	14.00	-17.00	11.00	0.00
	11.00	19.00	17.00	111.00	-1.00	25.00	16.00
	-12.00	26.00	-79.00	70.00	18.00	34.00	21.00
	-18.00	22.00	-168.00	-13.00	13.00	18.00	9.00
	-12.00	17.00	-78.00	-17.00	7.00	-3.00	-5.00
