
	4.00	-126.00	-45.00	5.00	33.00	6.00	16.00
	3.00	-109.00	-1.00	-2.00	26.00	13.00	11.00
	10.00	-84.00	85.00	-20.00	-5.00	27.00	11.00
	10.00	-78.00	137.00	-23.00	-1.00	26.00	11.00
	16.00	-38.00	118.00	0.00	7.00	22.00	-4.00
	10.00	-2.00	86.00	29.00	22.00	16.00	-16.00
	5.00	25.00	57.00	20.00	29.00	14.00	-16.00
	10.00	40.00	22.00	-5.00	16.00	16.00	-21.00
	12.00	52.00	25.00	-22.00	5.00	20.00	7.00
	14.00	110.00	9.00	-23.00	-6.00	17.00	26.00
	22.00	130.00	6.00	-34.00	0.00	19.00	20.00
	24.00	123.00	40.00	-20.00	2.00	21.00	16.00
	16.00	113.00	95.00	-15.00	-9.00	14.00	15.00
	10.00	93.00	121.00	0.00	-7.00	8.00	18.00
	3.00	75.00	33.00	11.00	0.00	-1.00	9.00
	3.00	61.00	-1.00	1.00	-1.00	-3.00	-13.00
	0.00	29.00	29.00	6.00	0.00	-12.00	-29.00
	-12.00	-20.00	19.00	7.00	0.00	-3.00	-19.00
	-27.00	-65.00	-15.00	6.00	-2.00	3.00	-11.00
	-30.00	-54.00	-19.00	16.00	57.00	5.00	-15.00
	-38.00	-36.00	-33.00	23.00	63.00	8.00	5.00
	-30.00	-31.00	-13.00	26.00	43.00	9.00	13.00
	-28.00	-24.00	81.00	5.00	22.00	13.00	8.00
	-25.00	-13.00	67.00	-4.00	-2.00	9.00	-4.00
	-16.00	13.00	20.00	5.00	-29.00	1.00	-14.00
	-12.00	29.00	7.00	20.00	-52.00	0.00	-8.00
	-5.00	75.00	8.00	0.00	-56.00	9.00	-11.00
	-4.00	84.00	-17.00	-2.00	-51.00	10.00	-10.00
	-5.00	70.00	-76.00	6.00	-45.00	5.00	-13.00
	-13.00	61.00	-92.00	-3.00	-29.00	9.00	-18.00
	-9.00	42.00	-41.00	-13.00	-20.00	13.00	-10.00
	-3.00	34.00	-9.00	16.00	-14.00	2.00	-8.00
	-3.00	32.00	-7.00	21.00	5.00	2.00	-2.00
	-5.00	5.00	-34.00	15.00	14.00	2.00	6.00
	5.00	-12.00	16.00	31.00	25.00	2.00	15.00
	14.00	-25.00	-46.00	31.00	25.00	0.00	19.00
	21.00	13.00	-106.00	5.00	33.00	10.00	17.00
	17.00	40.00	-86.00	-6.00	33.00	16.00	4.00
	16.00	49.00	59.00	-37.00	29.00	18.00	-5.00
	11.00	31.00	152.00	-43.00	23.00	6.00	-14.00
	19.00	-12.00	175.00	-38.00	24.00	3.00	-23.00
	14.00	-18.00	153.00	-9.00	28.00	4.00	-27.00
	13.00	-5.00	90.00	-6.00	37.00	6.00	-25.00
	8.00	-10.00	-50.00	-12.00	42.00	3.00	-23.00
	5.00	-11.00	-189.00	45.00	37.00	-9.00	-21.00
	11.00	-17.00	-246.00	81.00	23.00	-8.00	-7.00
	0.00	-28.00	-119.00	70.00	17.00	-13.00	6.00
	-6.00	-15.00	-59.00	39.00	39.00	-7.00	15.00
	-11.00	68.00	-11.00	34.00	69.00	2.00	25.00
	-19.00	145.00	-77.00	57.00	55.00	3.00	28.00
	-20.00	156.00	-45.00	69.00	44.00	7.00	29.00
	-17.00	100.00	-10.00	29.00	33.00	12.00	21.00
	-14.00	57.00	16.00	-4.00	14.00	17.00	14.00
	-13.00	30.00	26.00	-30.00	-8.00	23.00	8.00
	-5.00	8.00	-41.00	-5.00	-35.00	19.00	3.00
	-7.00	-10.00	-110.00	32.00	-41.00	21.00	5.00
	-7.00	-33.00	-36.00	15.00	-38.00	20.00	0.00
	-4.00	-67.00	68.00	-8.00	-8.00	23.00	-3.00
	0.00	-91.00	100.00	-10.00	3.00	15.00	-2.00
	2.00	-91.00	99.00	-7.00	22.00	-4.00	-3.00
	7.00	-64.00	6.00	18.00	21.00	-12.00	-1.00
	17.00	-67.00	-23.00	-10.00	30.00	-6.00	4.00
	24.00	-35.00	-15.00	-23.00	32.00	-1.00	7.00
	14.00	30.00	-8.00	7.00	15.00	10.00	6.00
	3.00	97.00	15.00	15.00	5.00	13.00	-3.00
	-2.00	138.00	25.00	4.00	8.00	11.00	-10.00
	-10.00	140.00	75.00	16.00	-1.00	15.00	-5.00
	-8.00	112.00	100.00	11.00	-2.00	16.00	-3.00
	2.00	96.00	132.00	-19.00	8.00	11.00	-4.00
	5.00	47.00	138.00	-47.00	6.00	19.00	-3.00
	2.00	-25.00	86.00	-39.00	11.00	13.00	-2.00
	-16.00	-75.00	18.00	4.00	38.00	7.00	0.00
	-21.00	-123.00	-56.00	12.00	34.00	16.00	0.00
	-19.00	-150.00	-8.00	-21.00	29.00	24.00	-3.00
	-15.00	-123.00	3.00	-35.00	19.00	27.00	-4.00
	-16.00	-55.00	16.00	-31.00	5.00	24.00	-2.00
	-16.00	-6.00	56.00	-41.00	-5.00	22.00	-1.00
	-16.00	20.00	66.00	-33.00	-5.00	20.00	-1.00
	-12.00	39.00	-18.00	-6.00	-6.00	18.00	-1.00
	-13.00	37.00	-48.00	2.00	-6.00	14.00	-1.00
	-10.00	28.00	7.00	-15.00	4.00	12.00	-1.00
	-11.00	22.00	36.00	-12.00	5.00	16.00	0.00
	-6.00	12.00	-50.00	32.00	13.00	9.00	-2.00
	13.00	9.00	-86.00	77.00	19.00	3.00	-4.00
	16.00	6.00	-52.00	103.00	32.00	-4.00	-7.00
	17.00	0.00	-30.00	91.00	35.00	-14.00	-11.00
	14.00	-11.00	32.00	56.00	28.00	-5.00	-8.00
	7.00	-2.00	82.00	18.00	16.00	10.00	-2.00
	12.00	28.00	99.00	-13.00	8.00	10.00	-6.00
	4.00	48.00	-1.00	-14.00	11.00	11.00	1.00
	6.00	72.00	-138.00	-26.00	13.00	18.00	10.00
	8.00	67.00	-110.00	-34.00	16.00	18.00	11.00
	23.00	36.00	-33.00	-6.00	18.00	9.00	8.00
	40.00	58.00	-47.00	40.00	9.00	7.00	-7.00
	34.00	72.00	23.00	33.00	9.00	7.00	-13.00
	23.00	60.00	75.00	8.00	9.00	5.00	-8.00
	15.00	57.00	-2.00	-18.00	4.00	-9.00	-8.00
	12.00	42.00	-78.00	-22.00	3.00	-18.00	3.00
	10.00	32.00	-158.00	3.00	-2.00	-6.00	9.00
	14.00	10.00	-87.00	22.00	-7.00	0.00	12.00
	2.00	23.00	-1.00	12.00	6.00	10.00	12.00
	-7.00	51.00	10.00	49.00	9.00	2.00	18.00
	-5.00	44.00	-23.00	63.00	6.00	-4.00	15.00
	-13.00	30.00	44.00	36.00	6.00	8.00	16.00
	-27.00	17.00	119.00	2.00	7.00	16.00	12.00
	-31.00	-4.00	153.00	-29.00	2.00	19.00	1.00
	-32.00	-5.00	144.00	-47.00	-1.00	13.00	2.00
	-44.00	-7.00	110.00	-65.00	-1.00	9.00	6.00
	-50.00	-11.00	54.00	-76.00	15.00	13.00	3.00
	-49.00	-28.00	6.00	-42.00	20.00	17.00	1.00
	-32.00	-23.00	-60.00	32.00	45.00	22.00	2.00
	-6.00	18.00	-160.00	84.00	35.00	20.00	-3.00
	11.00	77.00	-125.00	67.00	26.00	11.00	-5.00
	17.00	103.00	-75.00	52.00	19.00	13.00	-1.00
	16.00	108.00	-44.00	70.00	0.00	0.00	-2.00
	22.00	82.00	-36.00	66.00	-9.00	-1.00	1.00
	22.00	39.00	-37.00	60.00	-10.00	10.00	7.00
	18.00	8.00	-41.00	28.00	-6.00	3.00	13.00
	18.00	-33.00	20.00	0.00	-5.00	2.00	19.00
	23.00	-62.00	95.00	17.00	-6.00	11.00	13.00
	23.00	-74.00	118.00	4.00	2.00	11.00	-2.00
	9.00	-78.00	105.00	-40.00	5.00	10.00	-10.00
	-10.00	-35.00	82.00	-33.00	19.00	-10.00	-21.00
	-9.00	27.00	68.00	-13.00	34.00	-19.00	-38.00
	-7.00	68.00	11.00	-21.00	50.00	-5.00	-45.00
	-8.00	60.00	12.00	-32.00	84.00	15.00	-29.00
	-14.00	64.00	50.00	-27.00	74.00	36.00	-14.00
	-19.00	66.00	142.00	-33.00	58.00	25.00	-11.00
	-22.00	28.00	150.00	-40.00	40.00	23.00	-7.00
	-15.00	-16.00	48.00	-18.00	20.00	0.00	-5.00
	-6.00	-53.00	-122.00	14.00	-3.00	-4.00	-2.00
	-13.00	-94.00	-158.00	8.00	-23.00	1.00	0.00
	-16.00	-124.00	-141.00	8.00	-27.00	4.00	-1.00
	-21.00	-125.00	-212.00	36.00	-22.00	-1.00	5.00
	-15.00	-100.00	-203.00	54.00	-21.00	-4.00	11.00
	-11.00	-67.00	-42.00	41.00	-4.00	2.00	21.00
	-14.00	-40.00	10.00	29.00	3.00	15.00	17.00
	-20.00	-13.00	1.00	21.00	-3.00	7.00	9.00
	-12.00	11.00	-7.00	4.00	-4.00	5.00	11.00
	-3.00	43.00	34.00	-23.00	-4.00	1.00	2.00
	3.00	94.00	4.00	-27.00	-1.00	4.00	-8.00
	8.00	107.00	8.00	-34.00	0.00	11.00	-11.00
	15.00	126.00	64.00	-38.00	1.00	15.00	-10.00
	12.00	119.00	118.00	-29.00	7.00	19.00	-23.00
	3.00	94.00	118.00	-12.00	12.00	21.00	-19.00
	11.00	88.00	127.00	10.00	13.00	24.00	-7.00
	17.00	112.00	144.00	26.00	25.00	23.00	-7.00
	15.00	176.00	107.00	27.00	23.00	14.00	-7.00
	15.00	191.00	-22.00	28.00	24.00	13.00	-28.00
	22.00	153.00	-91.00	50.00	21.00	5.00	-45.00
	31.00	56.00	-181.00	35.00	26.00	5.00	-33.00
	30.00	-29.00	-189.00	-21.00	26.00	11.00	-13.00
	19.00	-99.00	-201.00	25.00	12.00	1.00	1.00
	11.00	-153.00	-159.00	57.00	9.00	-12.00	6.00
	6.00	-174.00	-36.00	21.00	14.00	-11.00	15.00
	0.00	-183.00	52.00	6.00	39.00	-10.00	14.00
	-4.00	-198.00	87.00	-6.00	43.00	-9.00	18.00
	-13.00	-198.00	52.00	-20.00	34.00	-4.00	22.00
	-18.00	-127.00	110.00	-42.00	20.00	9.00	27.00
	-13.00	-47.00	163.00	-34.00	9.00	16.00	32.00
	-9.00	-5.00	148.00	-21.00	-5.00	14.00	28.00
	-3.00	26.00	143.00	-17.00	-11.00	16.00	25.00
	6.00	49.00	125.00	-4.00	-9.00	13.00	22.00
	0.00	71.00	98.00	28.00	-6.00	9.00	17.00
	-3.00	85.00	54.00	11.00	6.00	14.00	10.00
	-6.00	107.00	-25.00	-25.00	9.00	18.00	2.00
	-11.00	111.00	-3.00	-39.00	18.00	12.00	-2.00
	-19.00	108.00	9.00	-21.00	24.00	3.00	-4.00
	-18.00	118.00	-38.00	-7.00	27.00	-1.00	-8.00
	-20.00	114.00	1.00	-3.00	34.00	4.00	-7.00
	-19.00	94.00	2.00	20.00	21.00	8.00	-8.00
	-13.00	74.00	-34.00	25.00	12.00	18.00	-10.00
	-7.00	47.00	-18.00	30.00	1.00	25.00	-11.00
	2.00	50.00	62.00	29.00	9.00	33.00	-11.00
	8.00	42.00	101.00	29.00	14.00	33.00	-15.00
	5.00	47.00	91.00	45.00	5.00	26.00	-10.00
	20.00	60.00	-26.00	71.00	0.00	24.00	0.00
	33.00	21.00	-67.00	61.00	-6.00	20.00	0.00
	30.00	7.00	-160.00	22.00	-8.00	11.00	-2.00
	21.00	-3.00	-224.00	24.00	-11.00	-3.00	-6.00
	21.00	-25.00	-135.00	34.00	-11.00	6.00	-6.00
	23.00	-36.00	-141.00	29.00	2.00	4.00	-12.00
	9.00	-40.00	-130.00	31.00	-1.00	4.00	-18.00
	1.00	-34.00	-104.00	39.00	1.00	1.00	-18.00
	-5.00	-35.00	-118.00	31.00	16.00	2.00	-21.00
	-3.00	-21.00	-34.00	2.00	19.00	8.00	-35.00
	-3.00	12.00	-13.00	-33.00	17.00	9.00	-31.00
	-3.00	76.00	34.00	-49.00	17.00	16.00	-22.00
	-12.00	82.00	55.00	-55.00	13.00	16.00	-18.00
	-27.00	70.00	36.00	-53.00	13.00	16.00	-7.00
	-25.00	34.00	13.00	-38.00	15.00	18.00	6.00
	-13.00	14.00	-25.00	-33.00	21.00	21.00	11.00
	-4.00	-18.00	-9.00	3.00	38.00	22.00	14.00
	-1.00	-31.00	-84.00	68.00	28.00	14.00	17.00
	1.00	-33.00	-21.00	68.00	24.00	10.00	21.00
	12.00	-26.00	173.00	27.00	19.00	8.00	20.00
	15.00	-28.00	186.00	10.00	12.00	5.00	11.00
	-1.00	-29.00	206.00	-35.00	4.00	0.00	13.00
	-6.00	3.00	188.00	-37.00	0.00	-16.00	17.00
	-5.00	35.00	145.00	-25.00	-5.00	-25.00	19.00
	-4.00	46.00	64.00	-20.00	-6.00	-24.00	15.00
	-10.00	67.00	-13.00	3.00	-17.00	-14.00	11.00
	-5.00	117.00	37.00	20.00	-17.00	-4.00	14.00
	-5.00	112.00	32.00	22.00	-7.00	2.00	20.00
	-4.00	99.00	-25.00	12.00	1.00	8.00	20.00
	-5.00	118.00	-162.00	19.00	15.00	3.00	9.00
	-10.00	78.00	-163.00	18.00	34.00	-15.00	3.00
	-22.00	12.00	-71.00	17.00	31.00	-12.00	-1.00
	-24.00	-63.00	-25.00	-5.00	34.00	-1.00	-5.00
	-30.00	-127.00	50.00	-10.00	38.00	7.00	-16.00
	-30.00	-164.00	53.00	-7.00	38.00	7.00	-25.00
	-23.00	-183.00	-22.00	22.00	32.00	19.00	-5.00
	-18.00	-196.00	-37.00	37.00	10.00	35.00	0.00
	-8.00	-200.00	-40.00	41.00	14.00	25.00	0.00
	-1.00	-184.00	-7.00	33.00	37.00	15.00	2.00
	10.00	-120.00	-26.00	32.00	27.00	14.00	6.00
	20.00	-60.00	12.00	26.00	17.00	4.00	5.00
	22.00	-13.00	48.00	0.00	6.00	7.00	-1.00
	21.00	19.00	101.00	-26.00	-11.00	17.00	-2.00
	31.00	32.00	131.00	-30.00	-23.00	10.00	1.00
	30.00	68.00	95.00	-24.00	-15.00	6.00	3.00
	12.00	80.00	109.00	-48.00	-17.00	12.00	5.00
	-3.00	81.00	91.00	-31.00	-9.00	11.00	7.00
	-11.00	94.00	-42.00	-12.00	4.00	16.00	11.00
	-16.00	97.00	-137.00	-14.00	7.00	20.00	6.00
	-14.00	91.00	-57.00	-15.00	12.00	26.00	-1.00
	-2.00	83.00	4.00	-27.00	-3.00	31.00	-7.00
	-7.00	81.00	-5.00	0.00	0.00	19.00	-21.00
	-11.00	87.00	-31.00	61.00	2.00	9.00	-22.00
	-11.00	126.00	15.00	56.00	-1.00	1.00	-11.00
	-18.00	143.00	-5.00	54.00	-1.00	4.00	-5.00
	-23.00	133.00	-68.00	11.00	-6.00	14.00	7.00
	-28.00	121.00	-12.00	-31.00	-4.00	13.00	6.00
	-29.00	119.00	-33.00	-19.00	4.00	1.00	1.00
	-13.00	100.00	-66.00	6.00	3.00	-13.00	3.00
	11.00	82.00	-67.00	31.00	17.00	-21.00	5.00
	21.00	39.00	-18.00	26.00	17.00	-13.00	-7.00
	19.00	11.00	-38.00	29.00	14.00	-13.00	-20.00
	19.00	-27.00	-23.00	35.00	33.00	-18.00	-22.00
	30.00	-52.00	-42.00	22.00	30.00	-7.00	-25.00
	28.00	-57.00	-3.00	23.00	22.00	12.00	-20.00
	23.00	-50.00	55.00	5.00	9.00	23.00	-8.00
	18.00	-30.00	11.00	20.00	-3.00	18.00	4.00
	14.00	-35.00	-17.00	28.00	-14.00	12.00	14.00
	-5.00	-25.00	-60.00	14.00	6.00	19.00	17.00
	-4.00	-8.00	-100.00	4.00	24.00	29.00	21.00
	-1.00	15.00	-35.00	-32.00	29.00	27.00	18.00
	-3.00	69.00	7.00	-43.00	30.00	15.00	19.00
	1.00	84.00	63.00	-40.00	21.00	6.00	20.00
	-3.00	66.00	156.00	-10.00	14.00	7.00	14.00
	-2.00	48.00	161.00	28.00	15.00	10.00	20.00
	-3.00	26.00	59.00	36.00	25.00	15.00	15.00
	-6.00	15.00	33.00	36.00	31.00	18.00	10.00
	0.00	-2.00	50.00	43.00	28.00	14.00	4.00
	5.00	-20.00	79.00	26.00	29.00	7.00	-24.00
	-12.00	0.00	23.00	-30.00	25.00	11.00	-22.00
	-28.00	-2.00	15.00	-47.00	11.00	7.00	-30.00
	-34.00	-22.00	54.00	-45.00	12.00	1.00	-23.00
	-31.00	-15.00	-42.00	-36.00	13.00	-1.00	-6.00
	-21.00	-8.00	-18.00	-26.00	2.00	1.00	5.00
	-36.00	-6.00	90.00	-16.00	1.00	6.00	13.00
	-35.00	-13.00	60.00	11.00	11.00	18.00	12.00
	-24.00	9.00	69.00	14.00	15.00	21.00	12.00
	-20.00	45.00	76.00	11.00	12.00	16.00	13.00
	-14.00	81.00	-62.00	42.00	0.00	12.00	12.00
	5.00	123.00	-146.00	77.00	-6.00	3.00	0.00
	29.00	130.00	-135.00	114.00	-9.00	-5.00	1.00
	37.00	86.00	-118.00	81.00	6.00	-5.00	4.00
	41.00	20.00	-89.00	55.00	12.00	-4.00	4.00
	38.00	-45.00	-146.00	56.00	-5.00	6.00	-2.00
	23.00	-108.00	-77.00	28.00	-14.00	3.00	-7.00
	10.00	-141.00	-94.00	15.00	-11.00	10.00	-9.00
	10.00	-159.00	-82.00	7.00	-6.00	16.00	-8.00
	14.00	-151.00	-19.00	21.00	-2.00	6.00	-4.00
	15.00	-126.00	33.00	-6.00	4.00	2.00	-3.00
	8.00	-87.00	29.00	-43.00	15.00	6.00	-6.00
	-2.00	-35.00	-16.00	-59.00	17.00	15.00	-14.00
	-9.00	1.00	-35.00	-61.00	18.00	17.00	-13.00
	-8.00	38.00	-58.00	-43.00	15.00	15.00	-7.00
	-6.00	81.00	-65.00	-23.00	10.00	12.00	4.00
	-2.00	95.00	10.00	-29.00	7.00	15.00	1.00
	-4.00	87.00	88.00	-24.00	6.00	19.00	-3.00
	-8.00	73.00	103.00	-18.00	0.00	9.00	-5.00
	-22.00	52.00	115.00	-5.00	7.00	-2.00	-15.00
	-29.00	38.00	129.00	-27.00	32.00	-7.00	-25.00
	-21.00	29.00	114.00	1.00	49.00	2.00	-13.00
	-27.00	28.00	119.00	11.00	41.00	9.00	0.00
	-15.00	28.00	103.00	4.00	27.00	8.00	3.00
	-8.00	20.00	72.00	16.00	17.00	8.00	2.00
	-10.00	27.00	-7.00	43.00	8.00	-1.00	3.00
	-4.00	45.00	-66.00	35.00	21.00	-3.00	5.00
	4.00	44.00	-25.00	28.00	37.00	-7.00	0.00
	0.00	46.00	45.00	22.00	30.00	-4.00	0.00
	-2.00	108.00	58.00	38.00	23.00	5.00	-1.00
	-1.00	142.00	91.00	22.00	6.00	17.00	-11.00
	4.00	141.00	75.00	-24.00	-11.00	19.00	-7.00
	8.00	108.00	-40.00	-23.00	-11.00	15.00	-2.00
	17.00	50.00	-54.00	-29.00	-3.00	29.00	6.00
	34.00	-7.00	-20.00	-28.00	-13.00	36.00	4.00
	39.00	-56.00	48.00	-9.00	8.00	29.00	16.00
	39.00	-91.00	-111.00	35.00	23.00	-14.00	11.00
	43.00	-110.00	-204.00	74.00	19.00	-19.00	-1.00
	52.00	-140.00	-140.00	54.00	16.00	0.00	-10.00
	45.00	-128.00	-78.00	57.00	15.00	10.00	7.00
	34.00	-78.00	53.00	25.00	7.00	12.00	12.00
	28.00	-3.00	146.00	-18.00	26.00	13.00	14.00
	20.00	79.00	185.00	-78.00	25.00	20.00	13.00
	19.00	105.00	269.00	-106.00	14.00	21.00	10.00
	23.00	138.00	232.00	-108.00	5.00	17.00	2.00
	22.00	151.00	185.00	-77.00	-5.00	21.00	2.00
	23.00	107.00	87.00	-18.00	-14.00	18.00	0.00
	39.00	48.00	-73.00	13.00	-7.00	15.00	-1.00
	41.00	-9.00	-168.00	67.00	22.00	4.00	-2.00
	33.00	-64.00	-256.00	113.00	29.00	-3.00	-1.00
	22.00	-92.00	-231.00	80.00	22.00	-19.00	0.00
	12.00	-116.00	-289.00	43.00	9.00	-28.00	-1.00
	2.00	-111.00	-220.00	41.00	-6.00	-14.00	-6.00
	-18.00	-67.00	-120.00	32.00	-13.00	12.00	-4.00
	-40.00	-39.00	-42.00	72.00	-4.00	20.00	0.00
	-54.00	-39.00	15.00	59.00	5.00	25.00	9.00
	-54.00	-28.00	14.00	40.00	17.00	25.00	4.00
	-51.00	-24.00	-4.00	47.00	11.00	20.00	0.00
	-47.00	1.00	24.00	38.00	15.00	24.00	-2.00
	-39.00	29.00	23.00	14.00	19.00	14.00	-10.00
	-34.00	26.00	-39.00	-4.00	30.00	2.00	-15.00
	-40.00	19.00	23.00	-83.00	41.00	22.00	-16.00
	-51.00	35.00	48.00	-111.00	30.00	12.00	-24.00
	-67.00	34.00	84.00	-78.00	23.00	14.00	-1.00
	-68.00	28.00	92.00	-44.00	17.00	6.00	17.00
	-48.00	18.00	91.00	23.00	11.00	14.00	9.00
	-43.00	29.00	89.00	77.00	10.00	6.00	-6.00
	-42.00	37.00	-3.00	68.00	15.00	-3.00	-14.00
	-43.00	63.00	-36.00	33.00	15.00	-4.00	-3.00
	-52.00	71.00	-30.00	7.00	14.00	8.00	5.00
	-58.00	79.00	17.00	-17.00	9.00	19.00	6.00
	-58.00	71.00	37.00	-31.00	8.00	21.00	9.00
	-49.00	72.00	64.00	-42.00	9.00	19.00	6.00
	-49.00	61.00	8.00	-11.00	8.00	3.00	3.00
	-42.00	44.00	-23.00	15.00	10.00	-2.00	-8.00
	-31.00	25.00	8.00	19.00	9.00	-4.00	-26.00
	-28.00	7.00	32.00	12.00	4.00	3.00	-16.00
	-31.00	-4.00	27.00	1.00	13.00	12.00	-6.00
	-25.00	-20.00	40.00	2.00	17.00	9.00	-8.00
	-20.00	-12.00	43.00	6.00	22.00	7.00	-13.00
	-7.00	78.00	35.00	30.00	25.00	0.00	8.00
	-5.00	143.00	53.00	28.00	16.00	-2.00	20.00
	-5.00	180.00	23.00	1.00	27.00	-3.00	14.00
	3.00	164.00	8.00	-6.00	19.00	9.00	2.00
	7.00	104.00	24.00	-16.00	33.00	15.00	-6.00
	7.00	31.00	36.00	-29.00	30.00	33.00	-5.00
	5.00	-34.00	81.00	-36.00	20.00	34.00	-29.00
	5.00	-103.00	82.00	7.00	6.00	21.00	-40.00
	5.00	-132.00	20.00	8.00	0.00	5.00	-26.00
	1.00	-136.00	-57.00	-11.00	-1.00	1.00	-4.00
	4.00	-115.00	-94.00	12.00	4.00	-4.00	2.00
	8.00	-87.00	5.00	1.00	3.00	-6.00	10.00
	12.00	-36.00	-26.00	-4.00	-9.00	4.00	20.00
	32.00	36.00	38.00	-9.00	-19.00	12.00	29.00
	46.00	91.00	-12.00	37.00	-23.00	1.00	34.00
	67.00	76.00	-62.00	45.00	-12.00	7.00	32.00
	71.00	50.00	-25.00	19.00	13.00	7.00	30.00
	68.00	40.00	-11.00	-30.00	20.00	-1.00	25.00
	62.00	17.00	89.00	-46.00	23.00	1.00	18.00
	51.00	-3.00	103.00	-33.00	20.00	7.00	4.00
	42.00	-43.00	63.00	-16.00	20.00	0.00	-2.00
	41.00	-74.00	-17.00	20.00	24.00	-4.00	-6.00
	33.00	-79.00	0.00	4.00	27.00	3.00	1.00
	27.00	-91.00	-84.00	15.00	18.00	-1.00	0.00
	20.00	-56.00	-129.00	27.00	13.00	-1.00	-7.00
	12.00	-24.00	-119.00	50.00	5.00	12.00	-9.00
	18.00	-10.00	-147.00	70.00	6.00	-8.00	-1.00
	16.00	4.00	-54.00	69.00	24.00	6.00	8.00
	13.00	25.00	-12.00	52.00	49.00	3.00	5.00
	21.00	40.00	65.00	23.00	41.00	3.00	4.00
	26.00	43.00	115.00	-9.00	36.00	-4.00	0.00
	23.00	44.00	81.00	-18.00	21.00	16.00	-7.00
	3.00	37.00	15.00	-20.00	10.00	30.00	-13.00
	-7.00	28.00	-84.00	-21.00	5.00	24.00	-14.00
	-6.00	30.00	-104.00	11.00	-8.00	12.00	-20.00
	-2.00	26.00	-156.00	56.00	-30.00	3.00	-16.00
	0.00	30.00	-159.00	43.00	-28.00	6.00	-4.00
	3.00	66.00	-87.00	69.00	-26.00	-2.00	-1.00
	2.00	101.00	-22.00	65.00	-22.00	1.00	-1.00
	1.00	135.00	7.00	56.00	-11.00	11.00	-2.00
	6.00	137.00	-60.00	31.00	-5.00	15.00	7.00
	4.00	97.00	-106.00	14.00	-1.00	11.00	16.00
	1.00	67.00	29.00	20.00	-5.00	6.00	24.00
	-6.00	28.00	160.00	-2.00	-9.00	12.00	14.00
	-14.00	10.00	186.00	3.00	0.00	26.00	5.00
	-10.00	-14.00	195.00	-11.00	-1.00	30.00	0.00
	-4.00	-39.00	166.00	-31.00	1.00	22.00	-24.00
	-12.00	-12.00	9.00	-24.00	8.00	13.00	-39.00
	-13.00	10.00	-120.00	1.00	25.00	-26.00	-38.00
	-14.00	5.00	-48.00	-25.00	30.00	-10.00	-29.00
	-12.00	53.00	62.00	-42.00	33.00	23.00	-7.00
	-11.00	71.00	78.00	-41.00	33.00	23.00	-1.00
	-19.00	35.00	46.00	-44.00	31.00	22.00	2.00
	-28.00	-4.00	32.00	-19.00	31.00	11.00	3.00
	-38.00	-6.00	-22.00	8.00	20.00	-7.00	0.00
	-36.00	-25.00	-81.00	39.00	16.00	-14.00	13.00
	-27.00	-54.00	8.00	10.00	14.00	3.00	20.00
	-22.00	-65.00	80.00	-10.00	11.00	23.00	15.00
	-11.00	-65.00	64.00	-27.00	17.00	18.00	8.00
	0.00	-70.00	59.00	-24.00	18.00	20.00	10.00
	2.00	-63.00	59.00	-20.00	25.00	12.00	22.00
	5.00	-44.00	43.00	-11.00	25.00	6.00	13.00
	4.00	-31.00	69.00	13.00	23.00	12.00	3.00
	8.00	-7.00	47.00	18.00	12.00	7.00	1.00
	21.00	10.00	-59.00	-12.00	6.00	6.00	-10.00
	26.00	13.00	-69.00	-40.00	16.00	8.00	-11.00
	31.00	45.00	-80.00	-54.00	27.00	13.00	-11.00
	20.00	113.00	-120.00	-44.00	27.00	13.00	-8.00
	-11.00	170.00	-111.00	-33.00	37.00	7.00	-3.00
	-26.00	184.00	-40.00	-12.00	31.00	17.00	-2.00
	-27.00	118.00	67.00	4.00	19.00	12.00	0.00
	-25.00	66.00	146.00	33.00	10.00	4.00	12.00
	-20.00	37.00	238.00	11.00	9.00	-5.00	8.00
	-12.00	-2.00	159.00	37.00	5.00	-17.00	9.00
	-1.00	-42.00	58.00	59.00	3.00	-7.00	6.00
	-1.00	-65.00	88.00	27.00	14.00	15.00	14.00
	-7.00	-87.00	77.00	19.00	23.00	19.00	18.00
	-8.00	-77.00	5.00	39.00	23.00	19.00	16.00
	-1.00	-40.00	-121.00	27.00	29.00	22.00	26.00
	13.00	-16.00	-147.00	15.00	22.00	11.00	21.00
	22.00	0.00	-137.00	9.00	7.00	6.00	9.00
	21.00	-18.00	-58.00	8.00	-3.00	7.00	5.00
	12.00	13.00	-11.00	10.00	-7.00	5.00	8.00
	7.00	50.00	-40.00	37.00	-18.00	-4.00	7.00
	9.00	36.00	-102.00	47.00	-25.00	-4.00	5.00
	24.00	11.00	-139.00	52.00	-18.00	-1.00	8.00
	20.00	7.00	-131.00	32.00	-5.00	8.00	-4.00
	12.00	12.00	-176.00	64.00	-9.00	8.00	-27.00
	10.00	20.00	-91.00	62.00	-16.00	18.00	-36.00
	4.00	22.00	11.00	22.00	-2.00	17.00	-27.00
	10.00	23.00	87.00	-17.00	4.00	28.00	-15.00
	-2.00	31.00	102.00	-56.00	13.00	39.00	-10.00
	-14.00	62.00	142.00	-73.00	21.00	27.00	-12.00
	-16.00	60.00	114.00	-54.00	19.00	37.00	-10.00
	-14.00	47.00	56.00	-15.00	17.00	18.00	-1.00
	-24.00	50.00	52.00	4.00	14.00	10.00	2.00
	-21.00	22.00	22.00	27.00	12.00	1.00	2.00
	-12.00	3.00	-75.00	58.00	8.00	-18.00	5.00
	0.00	-13.00	-117.00	63.00	5.00	-19.00	4.00
	-2.00	-8.00	-59.00	39.00	4.00	-13.00	1.00
	-7.00	0.00	46.00	-7.00	15.00	11.00	-1.00
	-9.00	-7.00	54.00	-31.00	17.00	8.00	2.00
	-2.00	-17.00	-66.00	-18.00	34.00	-4.00	10.00
	2.00	9.00	-56.00	34.00	30.00	-5.00	14.00
	-1.00	18.00	29.00	54.00	25.00	-4.00	14.00
	4.00	15.00	40.00	48.00	15.00	-2.00	9.00
	-1.00	9.00	18.00	45.00	12.00	3.00	9.00
	-7.00	11.00	42.00	36.00	19.00	5.00	4.00
	-9.00	-10.00	67.00	39.00	14.00	10.00	-8.00
	-8.00	-14.00	-9.00	2.00	16.00	16.00	-8.00
	-13.00	3.00	-75.00	-35.00	18.00	12.00	-10.00
	-13.00	27.00	-17.00	-49.00	21.00	13.00	-10.00
	-17.00	67.00	39.00	-68.00	12.00	13.00	-15.00
	-17.00	94.00	75.00	-80.00	1.00	2.00	-19.00
	-4.00	86.00	68.00	-86.00	-3.00	-11.00	-8.00
	7.00	99.00	-72.00	-53.00	-12.00	-14.00	8.00
	8.00	110.00	-36.00	-6.00	2.00	-3.00	13.00
	12.00	109.00	0.00	35.00	16.00	10.00	16.00
	3.00	99.00	-7.00	42.00	17.00	10.00	18.00
	-12.00	76.00	19.00	32.00	-1.00	12.00	16.00
	-18.00	46.00	-19.00	18.00	-12.00	16.00	7.00
	-20.00	-4.00	-28.00	6.00	-29.00	24.00	4.00
	-22.00	-52.00	42.00	14.00	-32.00	25.00	2.00
	-36.00	-99.00	100.00	31.00	-23.00	14.00	4.00
	-39.00	-149.00	170.00	37.00	-16.00	6.00	3.00
	-21.00	-175.00	235.00	18.00	-22.00	13.00	-5.00
	-1.00	-157.00	146.00	3.00	-29.00	12.00	-12.00
	14.00	-124.00	29.00	-10.00	-28.00	3.00	-9.00
	11.00	-114.00	6.00	-50.00	-11.00	11.00	-5.00
	14.00	-101.00	-70.00	-68.00	18.00	13.00	14.00
	31.00	-42.00	-87.00	-44.00	44.00	20.00	27.00
	39.00	8.00	-29.00	-26.00	46.00	26.00	22.00
	44.00	35.00	1.00	-11.00	40.00	26.00	6.00
	31.00	83.00	19.00	-9.00	40.00	26.00	0.00
	22.00	100.00	-34.00	42.00	48.00	22.00	-7.00
	15.00	87.00	-118.00	76.00	38.00	16.00	-7.00
	16.00	67.00	-125.00	54.00	27.00	13.00	-26.00
	3.00	64.00	2.00	4.00	23.00	16.00	-42.00
	-2.00	60.00	-13.00	0.00	16.00	-6.00	-38.00
	-12.00	53.00	-27.00	-11.00	12.00	-24.00	-34.00
	-10.00	24.00	-45.00	-21.00	29.00	3.00	-20.00
	-15.00	21.00	-11.00	-7.00	48.00	7.00	-6.00
	-17.00	9.00	-33.00	26.00	53.00	5.00	4.00
	-23.00	5.00	-11.00	25.00	45.00	21.00	10.00
	-26.00	-7.00	104.00	36.00	32.00	23.00	10.00
	-24.00	-4.00	113.00	63.00	23.00	11.00	16.00
	-22.00	-1.00	53.00	80.00	21.00	9.00	18.00
	-26.00	18.00	28.00	60.00	10.00	9.00	22.00
	-16.00	33.00	-110.00	77.00	3.00	5.00	15.00
	-12.00	47.00	-164.00	65.00	-9.00	8.00	-3.00
	-3.00	48.00	-185.00	42.00	-12.00	11.00	-4.00
	3.00	33.00	-161.00	39.00	-14.00	15.00	8.00
	10.00	20.00	-75.00	4.00	-9.00	18.00	3.00
	11.00	15.00	-48.00	-17.00	0.00	3.00	1.00
	7.00	14.00	-22.00	-24.00	17.00	-21.00	3.00
	10.00	10.00	-16.00	-21.00	17.00	-7.00	-3.00
	23.00	27.00	-34.00	-13.00	11.00	12.00	-5.00
	25.00	33.00	-16.00	-26.00	19.00	19.00	0.00
	13.00	46.00	42.00	-60.00	15.00	-7.00	0.00
	-5.00	37.00	132.00	-68.00	12.00	-11.00	-10.00
	-12.00	16.00	129.00	-43.00	9.00	3.00	-13.00
	-14.00	-5.00	162.00	-50.00	4.00	19.00	-9.00
	-22.00	-6.00	149.00	-31.00	8.00	24.00	-4.00
	-25.00	20.00	103.00	42.00	3.00	12.00	-3.00
	-16.00	30.00	67.00	51.00	12.00	10.00	-3.00
	-2.00	25.00	10.00	36.00	19.00	11.00	-8.00
	3.00	23.00	-28.00	4.00	19.00	9.00	-1.00
	4.00	27.00	-21.00	-17.00	17.00	-5.00	12.00
	7.00	26.00	6.00	-6.00	11.00	0.00	15.00
	3.00	13.00	1.00	10.00	4.00	4.00	15.00
	6.00	-5.00	-9.00	12.00	-1.00	8.00	23.00
	15.00	-7.00	-97.00	54.00	15.00	-4.00	19.00
	14.00	-13.00	-115.00	42.00	23.00	-11.00	15.00
	8.00	11.00	-6.00	3.00	14.00	1.00	9.00
	8.00	42.00	77.00	-11.00	8.00	13.00	13.00
	14.00	42.00	157.00	0.00	13.00	15.00	8.00
	7.00	37.00	218.00	-3.00	9.00	14.00	4.00
	-9.00	17.00	180.00	-23.00	4.00	15.00	-3.00
	-8.00	-4.00	189.00	-24.00	4.00	19.00	-4.00
	-12.00	-3.00	118.00	-19.00	0.00	23.00	-2.00
	-15.00	-15.00	-132.00	52.00	-8.00	15.00	-4.00
	-14.00	-25.00	-182.00	52.00	-4.00	8.00	2.00
	-15.00	-24.00	-84.00	54.00	2.00	-1.00	-1.00
	-17.00	-18.00	15.00	25.00	10.00	2.00	9.00
	-8.00	21.00	-123.00	16.00	1.00	-3.00	9.00
	5.00	41.00	-90.00	9.00	6.00	-11.00	13.00
	5.00	67.00	-65.00	-23.00	41.00	-3.00	12.00
	1.00	140.00	64.00	-61.00	36.00	12.00	2.00
	-3.00	176.00	141.00	-67.00	31.00	14.00	-3.00
	2.00	158.00	109.00	-52.00	34.00	13.00	-21.00
	18.00	114.00	-17.00	-50.00	16.00	16.00	-16.00
	25.00	32.00	-41.00	-46.00	18.00	18.00	-13.00
	12.00	-17.00	-82.00	-9.00	3.00	13.00	-18.00
	4.00	-64.00	-145.00	11.00	-13.00	9.00	-20.00
	10.00	-55.00	-61.00	44.00	-31.00	10.00	-23.00
	16.00	-40.00	-77.00	109.00	-50.00	2.00	-14.00
	10.00	-13.00	-145.00	126.00	-55.00	-5.00	-2.00
	-4.00	48.00	-255.00	138.00	-41.00	-8.00	5.00
	-12.00	81.00	-187.00	110.00	-22.00	-9.00	13.00
	2.00	107.00	-71.00	55.00	-6.00	-5.00	7.00
	5.00	90.00	-6.00	11.00	15.00	1.00	6.00
	-2.00	32.00	40.00	12.00	20.00	6.00	4.00
	-9.00	-40.00	71.00	1.00	30.00	10.00	0.00
	-11.00	-111.00	77.00	-22.00	66.00	14.00	-3.00
	-15.00	-171.00	158.00	-53.00	80.00	25.00	-16.00
	-12.00	-201.00	215.00	-66.00	67.00	29.00	-36.00
	-7.00	-170.00	173.00	-46.00	61.00	27.00	-27.00
	-1.00	-133.00	80.00	-33.00	51.00	27.00	-9.00
	2.00	-102.00	26.00	-46.00	39.00	26.00	2.00
	1.00	-54.00	9.00	-55.00	24.00	14.00	4.00
	-6.00	10.00	-33.00	-37.00	8.00	18.00	6.00
	-2.00	51.00	-3.00	-21.00	-8.00	16.00	14.00
	-6.00	40.00	33.00	-18.00	-15.00	9.00	12.00
	-5.00	28.00	-58.00	21.00	-16.00	-12.00	11.00
	-7.00	23.00	-120.00	28.00	-6.00	-25.00	12.00
	-10.00	19.00	-73.00	2.00	-5.00	-9.00	15.00
	-7.00	15.00	-56.00	-11.00	5.00	16.00	21.00
	0.00	33.00	-1.00	-32.00	21.00	26.00	33.00
	1.00	101.00	118.00	-32.00	19.00	19.00	33.00
	2.00	116.00	107.00	12.00	12.00	-2.00	20.00
	-3.00	101.00	81.00	53.00	16.00	0.00	14.00
	-8.00	77.00	29.00	104.00	14.00	-8.00	5.00
	-14.00	52.00	43.00	91.00	13.00	-3.00	-8.00
	-11.00	24.00	31.00	44.00	5.00	22.00	-15.00
	-15.00	6.00	63.00	18.00	3.00	27.00	-19.00
	-11.00	-6.00	69.00	7.00	18.00	18.00	-19.00
	-9.00	-24.00	36.00	0.00	27.00	6.00	-28.00
	-11.00	-23.00	24.00	-6.00	42.00	-3.00	-14.00
	-5.00	0.00	9.00	-3.00	34.00	-10.00	-5.00
	-1.00	18.00	-47.00	-13.00	21.00	-2.00	0.00
	6.00	39.00	-54.00	-18.00	14.00	6.00	3.00
	12.00	52.00	-8.00	-8.00	-2.00	-3.00	5.00
	22.00	59.00	87.00	20.00	-7.00	-14.00	8.00
	29.00	66.00	60.00	19.00	1.00	-17.00	7.00
	33.00	89.00	0.00	-4.00	8.00	-7.00	1.00
	30.00	86.00	-76.00	17.00	11.00	7.00	0.00
	27.00	73.00	-189.00	57.00	14.00	8.00	4.00
	31.00	80.00	-269.00	51.00	18.00	13.00	9.00
	32.00	68.00	-69.00	-8.00	18.00	29.00	8.00
	23.00	33.00	22.00	-28.00	16.00	31.00	12.00
	22.00	-25.00	18.00	-37.00	10.00	17.00	13.00
	13.00	-55.00	0.00	-46.00	14.00	14.00	19.00
	-6.00	-83.00	73.00	-11.00	21.00	23.00	26.00
	-20.00	-72.00	95.00	40.00	10.00	40.00	17.00
	-35.00	-61.00	84.00	49.00	3.00	42.00	9.00
	-36.00	-41.00	36.00	45.00	8.00	30.00	5.00
	-40.00	-15.00	1.00	19.00	27.00	1.00	7.00
	-41.00	-4.00	-80.00	12.00	33.00	-27.00	8.00
	-40.00	-1.00	-194.00	1.00	24.00	-18.00	7.00
	-18.00	9.00	-86.00	-69.00	33.00	9.00	2.00
	-3.00	24.00	11.00	-71.00	27.00	21.00	-2.00
	-11.00	53.00	69.00	-42.00	20.00	30.00	-3.00
	-22.00	104.00	140.00	-14.00	21.00	29.00	-3.00
	-18.00	106.00	97.00	51.00	14.00	20.00	-3.00
	-8.00	91.00	43.00	63.00	-1.00	14.00	-8.00
	4.00	63.00	7.00	38.00	-16.00	8.00	-7.00
	23.00	21.00	-19.00	26.00	-10.00	7.00	-9.00
	20.00	-26.00	-38.00	25.00	15.00	-10.00	-4.00
	18.00	-63.00	-38.00	56.00	17.00	-28.00	-6.00
	10.00	-73.00	4.00	73.00	22.00	-13.00	-4.00
	1.00	-69.00	-9.00	46.00	26.00	2.00	-6.00
	-13.00	-68.00	38.00	13.00	29.00	15.00	-13.00
	-11.00	-62.00	5.00	-3.00	12.00	24.00	-3.00
	-6.00	-30.00	-39.00	-18.00	-5.00	27.00	-4.00
	-2.00	47.00	-108.00	-36.00	-18.00	32.00	-4.00
	-7.00	132.00	-90.00	-20.00	-36.00	19.00	-4.00
	-5.00	179.00	11.00	-29.00	-36.00	8.00	-6.00
	3.00	153.00	55.00	-45.00	-23.00	-20.00	1.00
	13.00	94.00	96.00	-54.00	-17.00	-5.00	-1.00
	14.00	17.00	40.00	-25.00	-2.00	12.00	-14.00
	21.00	-20.00	19.00	-15.00	3.00	10.00	-18.00
	20.00	-39.00	24.00	-22.00	2.00	21.00	7.00
	15.00	-17.00	40.00	20.00	-2.00	6.00	24.00
	9.00	-37.00	70.00	33.00	-7.00	-8.00	26.00
	-1.00	-63.00	78.00	34.00	-2.00	-1.00	24.00
	-18.00	-75.00	67.00	5.00	6.00	7.00	19.00
	-20.00	-58.00	70.00	17.00	2.00	17.00	12.00
	-14.00	-33.00	35.00	37.00	4.00	19.00	-6.00
	-13.00	11.00	-61.00	7.00	0.00	8.00	-26.00
	-16.00	45.00	-163.00	-37.00	7.00	-1.00	-24.00
	-11.00	58.00	-115.00	3.00	12.00	-2.00	-10.00
	-6.00	56.00	1.00	-21.00	17.00	6.00	-6.00
	2.00	40.00	92.00	-38.00	30.00	7.00	-2.00
	10.00	38.00	97.00	7.00	45.00	2.00	-4.00
	10.00	5.00	48.00	36.00	57.00	-1.00	-7.00
	2.00	-17.00	42.00	41.00	60.00	16.00	-5.00
	-2.00	-45.00	44.00	29.00	51.00	22.00	-6.00
	-7.00	-44.00	-24.00	-11.00	38.00	22.00	7.00
	4.00	-16.00	-47.00	-23.00	29.00	20.00	14.00
	6.00	33.00	-53.00	-37.00	15.00	24.00	7.00
	2.00	56.00	-48.00	-8.00	8.00	6.00	7.00
	-10.00	105.00	-89.00	16.00	14.00	-20.00	13.00
	-12.00	103.00	-126.00	80.00	26.00	-37.00	13.00
	-24.00	103.00	72.00	76.00	25.00	-15.00	3.00
	-19.00	91.00	192.00	14.00	16.00	24.00	7.00
	-29.00	51.00	190.00	-3.00	9.00	34.00	9.00
	-39.00	44.00	119.00	18.00	23.00	33.00	4.00
	-30.00	19.00	63.00	2.00	20.00	29.00	-1.00
	-21.00	36.00	-79.00	-3.00	23.00	21.00	-12.00
	-14.00	33.00	-253.00	5.00	28.00	17.00	-20.00
	-4.00	-8.00	-198.00	-11.00	19.00	14.00	-13.00
	13.00	-42.00	-195.00	1.00	18.00	-7.00	-5.00
	17.00	-48.00	-128.00	22.00	-2.00	-5.00	0.00
	14.00	-49.00	-40.00	61.00	-17.00	-5.00	-6.00
	9.00	-71.00	31.00	43.00	-9.00	3.00	-18.00
	3.00	-78.00	46.00	58.00	-3.00	0.00	-3.00
	-3.00	-87.00	52.00	55.00	-5.00	13.00	8.00
	2.00	-81.00	36.00	51.00	-10.00	22.00	11.00
	7.00	-60.00	50.00	18.00	-9.00	20.00	-1.00
	0.00	-45.00	79.00	-19.00	-5.00	21.00	-6.00
	-16.00	-35.00	139.00	-39.00	-5.00	9.00	-9.00
	-26.00	24.00	77.00	-38.00	6.00	-6.00	1.00
	-23.00	74.00	56.00	-18.00	25.00	-29.00	2.00
	-26.00	88.00	40.00	2.00	17.00	-22.00	-5.00
	-23.00	95.00	37.00	12.00	9.00	-10.00	-5.00
	-17.00	107.00	-53.00	35.00	9.00	10.00	-1.00
	-3.00	95.00	-70.00	42.00	6.00	9.00	11.00
	7.00	87.00	-35.00	4.00	9.00	15.00	20.00
	17.00	71.00	-53.00	-25.00	11.00	17.00	22.00
	31.00	21.00	-81.00	-25.00	15.00	20.00	30.00
	29.00	-23.00	-47.00	-31.00	21.00	24.00	19.00
	35.00	-55.00	5.00	-48.00	10.00	35.00	12.00
	37.00	-41.00	9.00	-55.00	11.00	37.00	11.00
	27.00	-8.00	50.00	-32.00	25.00	12.00	4.00
	24.00	32.00	128.00	-30.00	29.00	-6.00	0.00
	18.00	93.00	-18.00	-43.00	15.00	13.00	2.00
	15.00	103.00	87.00	-46.00	25.00	8.00	12.00
	18.00	106.00	90.00	6.00	27.00	-2.00	11.00
	17.00	76.00	71.00	41.00	6.00	6.00	-2.00
	8.00	48.00	-54.00	33.00	-2.00	-1.00	-1.00
	4.00	-3.00	-107.00	45.00	-1.00	-30.00	-6.00
	6.00	-53.00	-67.00	87.00	-5.00	-23.00	-6.00
	4.00	-68.00	-108.00	108.00	-4.00	-2.00	-8.00
	1.00	-91.00	-103.00	54.00	33.00	1.00	-6.00
	-2.00	-101.00	11.00	14.00	28.00	6.00	0.00
	-3.00	-85.00	-36.00	16.00	12.00	4.00	1.00
	-7.00	-46.00	54.00	-8.00	5.00	3.00	-1.00
	-11.00	2.00	145.00	-31.00	-3.00	11.00	-2.00
	-19.00	18.00	158.00	-57.00	-9.00	18.00	5.00
	-20.00	29.00	108.00	-63.00	-16.00	24.00	5.00
	-22.00	13.00	2.00	-55.00	-16.00	29.00	-2.00
	-14.00	7.00	-104.00	-48.00	-20.00	23.00	-6.00
	-16.00	7.00	-128.00	-42.00	-28.00	13.00	-10.00
	-16.00	21.00	-7.00	-52.00	-28.00	13.00	-15.00
	-7.00	29.00	115.00	-48.00	-20.00	5.00	-21.00
	0.00	40.00	132.00	-18.00	-11.00	8.00	-21.00
	-3.00	36.00	66.00	23.00	0.00	12.00	-13.00
	-10.00	37.00	-14.00	59.00	12.00	18.00	-4.00
	-15.00	45.00	-79.00	85.00	21.00	17.00	5.00
	-17.00	48.00	-61.00	104.00	29.00	18.00	5.00
	-18.00	70.00	11.00	85.00	29.00	24.00	2.00
	-14.00	112.00	1.00	69.00	32.00	25.00	2.00
	-6.00	109.00	-37.00	48.00	31.00	6.00	-15.00
	-4.00	90.00	-44.00	3.00	30.00	3.00	-15.00
	5.00	76.00	-15.00	-15.00	28.00	18.00	-2.00
	3.00	48.00	119.00	-26.00	30.00	32.00	6.00
	-14.00	19.00	146.00	1.00	25.00	23.00	4.00
	-17.00	5.00	85.00	40.00	26.00	16.00	15.00
	-12.00	-16.00	15.00	34.00	35.00	24.00	25.00
	-2.00	-25.00	-20.00	26.00	35.00	26.00	25.00
	7.00	-12.00	-183.00	45.00	19.00	0.00	24.00
	9.00	35.00	-267.00	38.00	7.00	10.00	17.00
	10.00	38.00	-101.00	-16.00	14.00	19.00	0.00
	13.00	17.00	-106.00	-19.00	22.00	-6.00	-11.00
	2.00	-10.00	-138.00	-29.00	42.00	-11.00	-12.00
	-1.00	-23.00	-7.00	-68.00	40.00	-22.00	-18.00
	-4.00	-35.00	82.00	-69.00	49.00	-12.00	-7.00
	-3.00	-26.00	67.00	-24.00	32.00	-4.00	2.00
	8.00	16.00	73.00	23.00	19.00	3.00	7.00
	18.00	19.00	0.00	48.00	-2.00	6.00	5.00
	24.00	-10.00	-2.00	46.00	-19.00	11.00	5.00
	10.00	2.00	15.00	20.00	-22.00	15.00	4.00
	1.00	0.00	59.00	9.00	-29.00	16.00	-3.00
	-11.00	-6.00	27.00	-40.00	-18.00	3.00	-10.00
	-22.00	-4.00	86.00	-55.00	-13.00	-8.00	-8.00
	-22.00	8.00	7.00	9.00	-5.00	20.00	-15.00
	-16.00	-12.00	-56.00	42.00	7.00	74.00	-12.00
	-12.00	-39.00	37.00	23.00	10.00	60.00	1.00
	-17.00	-33.00	-40.00	85.00	10.00	20.00	7.00
	-15.00	-18.00	34.00	105.00	9.00	21.00	4.00
	-16.00	-10.00	203.00	39.00	11.00	-4.00	-8.00
	-9.00	6.00	148.00	-18.00	6.00	-30.00	-3.00
	5.00	6.00	14.00	-35.00	16.00	-70.00	-1.00
	15.00	5.00	-7.00	-22.00	30.00	-49.00	0.00
	16.00	13.00	-25.00	-42.00	34.00	30.00	4.00
	25.00	9.00	-36.00	-43.00	43.00	81.00	-9.00
	22.00	1.00	-39.00	-27.00	41.00	31.00	2.00
	14.00	13.00	11.00	-40.00	34.00	-6.00	-12.00
	17.00	14.00	-6.00	-35.00	24.00	-36.00	-19.00
	16.00	14.00	-80.00	-6.00	9.00	-39.00	-18.00
	15.00	-3.00	-74.00	32.00	-7.00	-61.00	0.00
	9.00	44.00	27.00	37.00	-12.00	-75.00	1.00
	3.00	115.00	60.00	42.00	-27.00	-70.00	2.00
	3.00	132.00	29.00	61.00	-28.00	-42.00	13.00
	0.00	107.00	5.00	52.00	-14.00	-22.00	14.00
	-1.00	65.00	-2.00	33.00	-3.00	-4.00	16.00
	-14.00	16.00	23.00	-4.00	8.00	-6.00	22.00
	-24.00	-5.00	89.00	-26.00	25.00	14.00	30.00
	-25.00	-9.00	88.00	-67.00	42.00	49.00	30.00
	-15.00	6.00	69.00	-65.00	27.00	33.00	30.00
	-13.00	10.00	40.00	-47.00	37.00	43.00	20.00
	-10.00	-4.00	-23.00	-6.00	40.00	43.00	8.00
	-17.00	-23.00	-49.00	29.00	26.00	50.00	2.00
	-18.00	-8.00	-17.00	54.00	11.00	54.00	-12.00
	2.00	-15.00	-60.00	67.00	-8.00	65.00	-24.00
	15.00	-29.00	-35.00	-5.00	-23.00	65.00	-24.00
	17.00	-51.00	-27.00	-8.00	-32.00	44.00	-22.00
	20.00	-67.00	-33.00	13.00	-39.00	37.00	-2.00
	16.00	-43.00	-112.00	19.00	-46.00	20.00	12.00
	19.00	-17.00	-129.00	10.00	-28.00	-18.00	7.00
	14.00	9.00	-78.00	-28.00	-7.00	-37.00	6.00
	4.00	27.00	-1.00	-8.00	11.00	-10.00	11.00
	8.00	33.00	-37.00	42.00	22.00	4.00	0.00
	15.00	34.00	-17.00	60.00	37.00	2.00	-8.00
	8.00	25.00	70.00	75.00	45.00	-5.00	-16.00
	4.00	24.00	141.00	47.00	44.00	-5.00	-25.00
	3.00	21.00	4.00	18.00	33.00	3.00	-16.00
	-2.00	22.00	-75.00	-16.00	27.00	26.00	-6.00
	-9.00	37.00	-70.00	-6.00	13.00	43.00	-4.00
	-10.00	36.00	-71.00	11.00	3.00	49.00	0.00
	-5.00	36.00	-8.00	8.00	-9.00	29.00	2.00
	-7.00	26.00	50.00	-20.00	-12.00	17.00	3.00
	-7.00	70.00	88.00	-5.00	-11.00	-7.00	1.00
	-16.00	96.00	79.00	-20.00	1.00	-5.00	0.00
	-22.00	94.00	53.00	-13.00	9.00	-8.00	-3.00
	-16.00	50.00	22.00	64.00	3.00	-4.00	-3.00
	-11.00	40.00	58.00	92.00	18.00	28.00	-1.00
	-8.00	47.00	8.00	68.00	32.00	15.00	-19.00
	-8.00	37.00	44.00	5.00	30.00	7.00	-28.00
	-9.00	14.00	76.00	-40.00	25.00	8.00	-22.00
	-12.00	2.00	-22.00	-97.00	25.00	13.00	-12.00
	-21.00	2.00	-89.00	-146.00	36.00	25.00	10.00
	-16.00	0.00	-94.00	-182.00	23.00	21.00	9.00
	-1.00	-2.00	-34.00	-140.00	18.00	2.00	0.00
	-4.00	-8.00	17.00	-60.00	28.00	-5.00	1.00
	-13.00	-3.00	108.00	20.00	44.00	4.00	16.00
	-5.00	-7.00	24.00	98.00	54.00	-15.00	34.00
	-5.00	14.00	-59.00	157.00	59.00	-30.00	26.00
	-12.00	77.00	3.00	137.00	44.00	46.00	12.00
	-14.00	120.00	75.00	75.00	29.00	87.00	0.00
	-11.00	157.00	101.00	29.00	14.00	71.00	-9.00
	-15.00	135.00	171.00	9.00	2.00	15.00	8.00
	-18.00	75.00	133.00	25.00	-18.00	-2.00	10.00
	-7.00	4.00	-74.00	54.00	-21.00	15.00	-4.00
	7.00	-61.00	-162.00	49.00	-5.00	25.00	-2.00
	14.00	-113.00	-125.00	55.00	-5.00	-14.00	13.00
	11.00	-159.00	-59.00	20.00	-14.00	-32.00	2.00
	12.00	-185.00	27.00	-26.00	-24.00	-4.00	-2.00
	13.00	-165.00	62.00	-40.00	-22.00	-1.00	3.00
	15.00	-144.00	67.00	-44.00	-12.00	-32.00	-7.00
	9.00	-98.00	-7.00	-37.00	-2.00	-38.00	-1.00
	17.00	-35.00	-116.00	4.00	9.00	-47.00	-3.00
	26.00	6.00	-90.00	28.00	15.00	-45.00	-12.00
	23.00	27.00	-27.00	41.00	19.00	-31.00	-12.00
	21.00	44.00	2.00	56.00	16.00	-7.00	-10.00
	16.00	44.00	-11.00	38.00	15.00	-9.00	1.00
	16.00	21.00	9.00	11.00	14.00	8.00	3.00
	5.00	-10.00	35.00	-24.00	16.00	16.00	-1.00
	-18.00	-14.00	53.00	-47.00	19.00	14.00	5.00
	-13.00	-2.00	36.00	-59.00	19.00	7.00	13.00
	-4.00	-6.00	-13.00	-48.00	3.00	12.00	10.00
	-2.00	15.00	3.00	-18.00	0.00	16.00	5.00
	0.00	9.00	-12.00	-14.00	22.00	2.00	9.00
	-8.00	17.00	-94.00	16.00	33.00	9.00	15.00
	-13.00	28.00	-92.00	21.00	20.00	15.00	5.00
	-17.00	29.00	0.00	-7.00	15.00	20.00	-2.00
	-27.00	48.00	41.00	-12.00	8.00	19.00	-24.00
	-20.00	75.00	6.00	5.00	12.00	-2.00	-16.00
	-18.00	105.00	37.00	34.00	13.00	-5.00	-7.00
	-12.00	103.00	19.00	27.00	6.00	29.00	-3.00
	-4.00	90.00	33.00	6.00	10.00	46.00	-13.00
	-2.00	83.00	73.00	0.00	40.00	40.00	-25.00
	1.00	105.00	56.00	-9.00	43.00	30.00	-19.00
	16.00	135.00	34.00	-11.00	41.00	30.00	-3.00
	23.00	99.00	-37.00	61.00	31.00	30.00	1.00
	14.00	63.00	-58.00	108.00	28.00	26.00	-2.00
	12.00	31.00	-39.00	127.00	17.00	37.00	1.00
	20.00	-6.00	-21.00	94.00	2.00	37.00	2.00
	19.00	-10.00	-30.00	26.00	-15.00	29.00	4.00
	11.00	-8.00	55.00	-38.00	-21.00	11.00	10.00
	7.00	-7.00	185.00	-74.00	-29.00	-10.00	-4.00
	3.00	-4.00	197.00	-129.00	-26.00	-5.00	-11.00
	7.00	-4.00	193.00	-182.00	-14.00	-22.00	-5.00
	2.00	-11.00	60.00	-85.00	-13.00	-19.00	-6.00
	-5.00	-5.00	-86.00	25.00	-3.00	-5.00	-9.00
	1.00	16.00	-189.00	54.00	18.00	3.00	-14.00
	3.00	0.00	-143.00	46.00	22.00	13.00	-16.00
	-14.00	-14.00	-73.00	60.00	34.00	-11.00	-19.00
	-47.00	-18.00	-28.00	27.00	48.00	4.00	3.00
	-70.00	-13.00	18.00	-16.00	50.00	0.00	9.00
	-71.00	6.00	76.00	-27.00	38.00	21.00	8.00
	-63.00	41.00	43.00	-15.00	19.00	24.00	9.00
	-54.00	68.00	96.00	-13.00	9.00	17.00	13.00
	-24.00	97.00	11.00	10.00	6.00	11.00	12.00
	3.00	125.00	-50.00	49.00	-2.00	-9.00	10.00
	31.00	102.00	-77.00	60.00	-2.00	-32.00	13.00
	47.00	66.00	-135.00	45.00	-13.00	-23.00	13.00
	49.00	26.00	-101.00	33.00	-17.00	-12.00	-4.00
	53.00	-13.00	-98.00	43.00	-10.00	-9.00	-3.00
	46.00	-22.00	-76.00	26.00	-1.00	34.00	-3.00
	50.00	-48.00	-30.00	10.00	5.00	92.00	-1.00
	41.00	-80.00	-45.00	11.00	4.00	79.00	3.00
	32.00	-98.00	9.00	17.00	-4.00	84.00	1.00
	18.00	-113.00	-2.00	-13.00	-3.00	57.00	0.00
	6.00	-109.00	20.00	-53.00	3.00	26.00	8.00
	-8.00	-78.00	3.00	-56.00	6.00	-33.00	10.00
	-13.00	-72.00	56.00	-38.00	32.00	-70.00	14.00
	-18.00	-67.00	43.00	16.00	50.00	-66.00	11.00
	-31.00	-58.00	28.00	45.00	28.00	-42.00	4.00
	-34.00	-40.00	139.00	42.00	22.00	-41.00	0.00
	-30.00	-17.00	84.00	76.00	11.00	-19.00	8.00
	-36.00	-1.00	70.00	63.00	18.00	-17.00	12.00
	-29.00	21.00	23.00	42.00	19.00	5.00	1.00
	-16.00	33.00	-55.00	27.00	21.00	3.00	7.00
	-5.00	29.00	-60.00	6.00	24.00	-8.00	7.00
	5.00	20.00	-108.00	4.00	29.00	11.00	10.00
	12.00	27.00	-34.00	-8.00	42.00	17.00	-7.00
	12.00	30.00	25.00	-3.00	43.00	6.00	-10.00
	9.00	29.00	42.00	-6.00	25.00	2.00	-4.00
	12.00	40.00	64.00	-28.00	18.00	15.00	-18.00
	10.00	53.00	103.00	-57.00	18.00	13.00	-28.00
	10.00	49.00	44.00	-12.00	21.00	21.00	-31.00
	9.00	61.00	15.00	-13.00	6.00	10.00	-30.00
	-4.00	88.00	24.00	-39.00	-14.00	12.00	-32.00
	-3.00	136.00	8.00	-46.00	-39.00	40.00	-25.00
	-11.00	229.00	-14.00	-91.00	-45.00	45.00	-4.00
	-18.00	305.00	-55.00	-52.00	-32.00	31.00	18.00
	-22.00	314.00	-32.00	5.00	-14.00	18.00	23.00
	-13.00	242.00	25.00	102.00	-7.00	21.00	15.00
	-2.00	109.00	-10.00	147.00	-1.00	25.00	6.00
	0.00	-10.00	-48.00	144.00	17.00	23.00	-2.00
	-5.00	-97.00	0.00	92.00	22.00	35.00	3.00
	-8.00	-189.00	76.00	18.00	23.00	69.00	7.00
	-14.00	-266.00	76.00	-38.00	26.00	92.00	6.00
	-10.00	-290.00	180.00	-60.00	51.00	57.00	-3.00
	4.00	-266.00	214.00	-60.00	69.00	25.00	-2.00
	2.00	-221.00	107.00	-19.00	89.00	-14.00	12.00
	-8.00	-161.00	10.00	23.00	84.00	-65.00	9.00
	-11.00	-70.00	-37.00	28.00	48.00	-57.00	-5.00
	-15.00	-1.00	-240.00	28.00	31.00	-31.00	-7.00
	-11.00	42.00	-185.00	24.00	11.00	-16.00	-9.00
	-3.00	75.00	-59.00	9.00	-19.00	-30.00	-8.00
	9.00	104.00	-9.00	-6.00	-51.00	-29.00	-9.00
	14.00	118.00	-15.00	15.00	-66.00	-15.00	-12.00
	14.00	121.00	21.00	-8.00	-63.00	-16.00	-7.00
	14.00	106.00	35.00	-34.00	-60.00	15.00	6.00
	3.00	77.00	35.00	-29.00	-50.00	35.00	3.00
	-6.00	46.00	45.00	-16.00	-27.00	35.00	7.00
	-16.00	51.00	66.00	-11.00	-8.00	22.00	4.00
	-23.00	45.00	39.00	-13.00	10.00	1.00	2.00
	-24.00	16.00	-25.00	-8.00	20.00	-6.00	3.00
	-15.00	-17.00	-138.00	17.00	25.00	14.00	-4.00
	-5.00	-29.00	-99.00	14.00	27.00	31.00	-11.00
	2.00	-32.00	-18.00	6.00	27.00	38.00	-8.00
	10.00	-20.00	52.00	-19.00	29.00	29.00	-4.00
	14.00	-18.00	22.00	-20.00	32.00	55.00	-1.00
	21.00	-1.00	-44.00	5.00	29.00	75.00	4.00
	25.00	-6.00	-125.00	21.00	25.00	62.00	2.00
	28.00	-5.00	-79.00	31.00	15.00	68.00	12.00
	31.00	20.00	-90.00	28.00	10.00	23.00	6.00
	24.00	49.00	-61.00	21.00	14.00	-35.00	0.00
	21.00	85.00	-52.00	8.00	18.00	-84.00	9.00
	20.00	117.00	-24.00	36.00	38.00	-131.00	2.00
	8.00	123.00	43.00	57.00	67.00	-127.00	3.00
	6.00	108.00	40.00	75.00	44.00	-56.00	13.00
	-1.00	90.00	14.00	73.00	24.00	-3.00	9.00
	0.00	70.00	-6.00	29.00	14.00	30.00	4.00
	-9.00	42.00	32.00	-18.00	11.00	31.00	-1.00
	-21.00	9.00	75.00	-51.00	10.00	22.00	-1.00
	-26.00	-14.00	-41.00	-69.00	9.00	24.00	-1.00
	-22.00	-26.00	-103.00	-60.00	-8.00	23.00	-4.00
	-13.00	-33.00	-43.00	-26.00	-18.00	8.00	-7.00
	-7.00	-50.00	48.00	-12.00	-22.00	19.00	-12.00
	-2.00	-31.00	66.00	-23.00	-20.00	24.00	-3.00
	11.00	-12.00	270.00	-24.00	-10.00	-6.00	-4.00
	8.00	-6.00	233.00	20.00	7.00	-15.00	-7.00
	-1.00	19.00	144.00	-2.00	4.00	40.00	-19.00
	-11.00	25.00	77.00	-6.00	-1.00	63.00	-36.00
	-15.00	28.00	8.00	-2.00	-1.00	76.00	-30.00
	-19.00	42.00	-91.00	17.00	7.00	56.00	-16.00
	-25.00	31.00	-138.00	48.00	17.00	32.00	-7.00
	-23.00	23.00	-16.00	24.00	21.00	4.00	-8.00
	-21.00	10.00	-19.00	68.00	28.00	-30.00	-2.00
	-21.00	3.00	-60.00	115.00	46.00	-79.00	0.00
	-17.00	2.00	11.00	68.00	40.00	-40.00	4.00
	-8.00	-9.00	68.00	10.00	26.00	3.00	11.00
	-4.00	-18.00	83.00	-73.00	5.00	8.00	17.00
	-1.00	2.00	92.00	-75.00	-7.00	-10.00	21.00
	-3.00	7.00	63.00	-42.00	-14.00	36.00	15.00
	0.00	-1.00	-8.00	-33.00	-7.00	41.00	2.00
	0.00	-5.00	-65.00	29.00	-4.00	18.00	-4.00
	-1.00	6.00	-61.00	83.00	-8.00	-1.00	-4.00
	10.00	5.00	-116.00	63.00	0.00	5.00	-12.00
	8.00	35.00	-116.00	12.00	0.00	11.00	12.00
	4.00	23.00	-105.00	-39.00	3.00	27.00	30.00
	-1.00	18.00	-63.00	-16.00	24.00	36.00	20.00
	-3.00	23.00	27.00	-11.00	17.00	38.00	8.00
	1.00	34.00	129.00	-16.00	10.00	41.00	6.00
	-4.00	54.00	160.00	-24.00	8.00	19.00	4.00
	-3.00	47.00	74.00	-20.00	14.00	13.00	3.00
	3.00	28.00	14.00	-35.00	21.00	21.00	10.00
	-2.00	44.00	105.00	-52.00	70.00	21.00	10.00
	-1.00	71.00	165.00	-48.00	73.00	26.00	3.00
	-2.00	54.00	77.00	12.00	55.00	9.00	-5.00
	12.00	40.00	16.00	82.00	51.00	7.00	-5.00
	25.00	38.00	-71.00	97.00	36.00	13.00	-5.00
	42.00	25.00	-135.00	80.00	7.00	8.00	-5.00
	47.00	-5.00	-212.00	84.00	-8.00	-15.00	-12.00
	55.00	-31.00	-155.00	54.00	-4.00	-1.00	-12.00
	52.00	-35.00	-100.00	-11.00	-20.00	-8.00	10.00
	57.00	-12.00	18.00	-37.00	-38.00	-3.00	25.00
	67.00	-29.00	62.00	-47.00	-58.00	36.00	-4.00
	60.00	-45.00	52.00	-37.00	-58.00	53.00	-32.00
	54.00	-65.00	-3.00	-16.00	-55.00	51.00	-21.00
	43.00	-64.00	-35.00	13.00	-36.00	52.00	-5.00
	32.00	-56.00	-66.00	51.00	10.00	10.00	-5.00
	27.00	-60.00	-146.00	61.00	27.00	-38.00	-20.00
	19.00	-38.00	-73.00	43.00	37.00	-52.00	-16.00
	5.00	-27.00	-20.00	15.00	32.00	-42.00	1.00
	-19.00	-27.00	-4.00	22.00	23.00	-35.00	3.00
	-32.00	-17.00	82.00	20.00	18.00	-34.00	8.00
	-32.00	-4.00	135.00	41.00	14.00	-49.00	9.00
	-36.00	3.00	152.00	-32.00	6.00	-22.00	6.00
	-23.00	-1.00	164.00	-62.00	0.00	-22.00	4.00
	-17.00	7.00	36.00	-32.00	-3.00	-35.00	0.00
	-28.00	36.00	19.00	-16.00	2.00	21.00	4.00
	-33.00	43.00	-22.00	-16.00	23.00	56.00	17.00
	-35.00	60.00	-72.00	-29.00	8.00	63.00	4.00
	-51.00	70.00	-110.00	-14.00	-2.00	60.00	-13.00
	-52.00	64.00	-79.00	-4.00	25.00	-5.00	-12.00
	-57.00	53.00	-73.00	26.00	29.00	-66.00	-7.00
	-62.00	51.00	-54.00	18.00	15.00	-39.00	-4.00
	-59.00	81.00	-33.00	-5.00	8.00	-6.00	-14.00
	-59.00	89.00	-23.00	-8.00	22.00	-12.00	-8.00
	-60.00	90.00	-28.00	2.00	33.00	-27.00	-4.00
	-65.00	97.00	-35.00	-16.00	37.00	-17.00	-1.00
	-64.00	115.00	-80.00	-29.00	36.00	-4.00	1.00
	-62.00	88.00	-22.00	-13.00	18.00	24.00	1.00
	-63.00	39.00	36.00	28.00	0.00	40.00	-5.00
	-66.00	-3.00	113.00	66.00	-7.00	46.00	-1.00
	-67.00	-36.00	195.00	66.00	0.00	35.00	-2.00
	-58.00	-50.00	219.00	61.00	8.00	23.00	-8.00
	-57.00	-46.00	183.00	3.00	24.00	19.00	-6.00
	-61.00	-28.00	161.00	-30.00	24.00	17.00	-4.00
	-58.00	-3.00	107.00	5.00	18.00	-5.00	-3.00
	-51.00	-18.00	-129.00	-10.00	30.00	19.00	6.00
	-31.00	-9.00	-188.00	33.00	46.00	7.00	0.00
	-6.00	25.00	-94.00	36.00	53.00	-18.00	2.00
	6.00	43.00	-34.00	7.00	33.00	-10.00	9.00
	15.00	52.00	126.00	-22.00	16.00	4.00	11.00
	23.00	-6.00	196.00	-32.00	0.00	0.00	7.00
	31.00	-52.00	111.00	-13.00	-8.00	-11.00	-2.00
	35.00	-71.00	76.00	0.00	-16.00	3.00	-7.00
	37.00	-82.00	-29.00	20.00	-16.00	35.00	3.00
	32.00	-65.00	-95.00	52.00	-14.00	42.00	6.00
	26.00	-15.00	-49.00	52.00	-11.00	38.00	13.00
	18.00	10.00	-88.00	52.00	-7.00	31.00	-2.00
	5.00	30.00	-114.00	16.00	-1.00	10.00	-11.00
	7.00	60.00	-37.00	-14.00	12.00	17.00	-7.00
	18.00	72.00	40.00	-3.00	16.00	69.00	-13.00
	28.00	72.00	35.00	24.00	22.00	41.00	-22.00
	40.00	83.00	-16.00	79.00	24.00	21.00	-7.00
	50.00	81.00	-50.00	70.00	30.00	45.00	4.00
	50.00	33.00	-65.00	29.00	33.00	62.00	-4.00
	43.00	-14.00	-87.00	17.00	35.00	13.00	10.00
	48.00	-53.00	-42.00	-6.00	37.00	-41.00	8.00
	54.00	-46.00	40.00	-58.00	19.00	-38.00	4.00
	49.00	-47.00	106.00	-149.00	4.00	-9.00	7.00
	46.00	-65.00	71.00	-185.00	2.00	9.00	-3.00
	47.00	-75.00	11.00	-107.00	8.00	20.00	-6.00
	31.00	-59.00	3.00	1.00	38.00	12.00	8.00
	24.00	-12.00	31.00	28.00	52.00	38.00	10.00
	23.00	19.00	17.00	62.00	49.00	19.00	1.00
	22.00	36.00	-138.00	119.00	51.00	-30.00	10.00
	23.00	71.00	-204.00	70.00	26.00	-24.00	9.00
	31.00	82.00	-178.00	9.00	-2.00	5.00	10.00
	37.00	86.00	-109.00	-29.00	-10.00	6.00	5.00
	18.00	91.00	54.00	-84.00	-3.00	-7.00	-4.00
	4.00	85.00	135.00	-50.00	-11.00	-19.00	-7.00
	-5.00	59.00	32.00	42.00	-24.00	-2.00	-11.00
	-9.00	22.00	76.00	55.00	-24.00	21.00	-8.00
	-20.00	0.00	72.00	53.00	-33.00	42.00	-14.00
	-36.00	-12.00	41.00	41.00	-30.00	38.00	-10.00
	-35.00	4.00	1.00	7.00	-12.00	12.00	-16.00
	-34.00	25.00	12.00	-3.00	-4.00	6.00	-13.00
	-32.00	25.00	-1.00	1.00	17.00	8.00	-11.00
	-25.00	19.00	-48.00	4.00	29.00	8.00	-8.00
	-5.00	33.00	-44.00	8.00	24.00	2.00	1.00
	14.00	46.00	-55.00	12.00	21.00	62.00	3.00
	28.00	63.00	-4.00	-4.00	17.00	101.00	6.00
	37.00	50.00	59.00	-12.00	8.00	84.00	13.00
	45.00	38.00	74.00	14.00	-2.00	52.00	15.00
	52.00	21.00	47.00	30.00	-3.00	-7.00	14.00
	58.00	2.00	-31.00	30.00	-2.00	-57.00	16.00
	50.00	32.00	-185.00	34.00	3.00	-60.00	15.00
	40.00	36.00	-106.00	15.00	25.00	-52.00	12.00
	35.00	25.00	-89.00	25.00	43.00	-40.00	13.00
	26.00	14.00	-82.00	36.00	37.00	-6.00	6.00
	8.00	35.00	-90.00	34.00	32.00	-2.00	6.00
	-6.00	24.00	13.00	18.00	38.00	-7.00	-4.00
	-17.00	10.00	121.00	-60.00	33.00	24.00	-10.00
	-29.00	-12.00	186.00	-59.00	40.00	2.00	-9.00
	-41.00	-20.00	212.00	6.00	38.00	6.00	16.00
	-41.00	-6.00	207.00	-2.00	15.00	53.00	39.00
	-41.00	-24.00	137.00	8.00	3.00	47.00	24.00
	-36.00	-53.00	67.00	24.00	8.00	-12.00	-6.00
	-42.00	-65.00	60.00	-8.00	10.00	-32.00	-24.00
	-41.00	-47.00	59.00	-46.00	5.00	-9.00	25.00
	-34.00	-15.00	41.00	-49.00	-2.00	15.00	35.00
	-31.00	15.00	88.00	-76.00	-2.00	20.00	5.00
	-24.00	18.00	-17.00	-30.00	0.00	25.00	-20.00
	-22.00	21.00	-51.00	1.00	0.00	26.00	-36.00
	-21.00	24.00	-23.00	32.00	2.00	29.00	-42.00
	-18.00	20.00	58.00	56.00	15.00	-9.00	-40.00
	-19.00	14.00	134.00	69.00	8.00	-26.00	-39.00
	-8.00	6.00	68.00	115.00	8.00	-39.00	-36.00
	-3.00	15.00	-15.00	76.00	11.00	-47.00	-20.00
	0.00	22.00	-79.00	25.00	12.00	-31.00	-8.00
	-7.00	34.00	-130.00	30.00	15.00	-25.00	-3.00
	3.00	43.00	-205.00	37.00	8.00	-10.00	-4.00
	9.00	42.00	-189.00	-26.00	23.00	-2.00	0.00
	8.00	27.00	-116.00	1.00	39.00	35.00	0.00
	2.00	23.00	-82.00	38.00	37.00	35.00	-4.00
	-4.00	38.00	-50.00	17.00	29.00	20.00	0.00
	-14.00	35.00	-26.00	-2.00	24.00	6.00	9.00
	-27.00	14.00	15.00	-24.00	32.00	-10.00	10.00
	-29.00	5.00	53.00	-2.00	23.00	-6.00	-11.00
	-29.00	4.00	60.00	45.00	7.00	10.00	-20.00
	-27.00	19.00	118.00	26.00	-19.00	46.00	-3.00
	-13.00	43.00	142.00	6.00	-31.00	48.00	5.00
	1.00	42.00	40.00	-60.00	-33.00	50.00	25.00
	8.00	40.00	-56.00	-85.00	-20.00	39.00	29.00
	12.00	41.00	-115.00	-89.00	-6.00	37.00	24.00
	20.00	33.00	-81.00	-44.00	5.00	38.00	27.00
	24.00	25.00	-61.00	-5.00	42.00	13.00	28.00
	33.00	3.00	-13.00	28.00	37.00	21.00	14.00
	33.00	-11.00	-92.00	33.00	32.00	14.00	17.00
	20.00	0.00	-83.00	41.00	29.00	2.00	22.00
	2.00	12.00	-4.00	29.00	28.00	10.00	12.00
	-19.00	45.00	56.00	1.00	16.00	17.00	4.00
