
	2.00	108.00	402.00	193.00	-122.00	-33.00	15.00
	-5.00	-142.00	365.00	202.00	-100.00	-19.00	-3.00
	0.00	-252.00	197.00	48.00	-64.00	1.00	17.00
	8.00	-277.00	111.00	-155.00	-27.00	19.00	36.00
	13.00	-257.00	215.00	-221.00	0.00	29.00	37.00
	9.00	-216.00	367.00	-261.00	13.00	26.00	43.00
	9.00	-144.00	295.00	-320.00	33.00	24.00	36.00
	18.00	-12.00	-15.00	-309.00	128.00	29.00	44.00
	24.00	80.00	-297.00	-233.00	273.00	43.00	29.00
	22.00	58.00	-536.00	-173.00	267.00	40.00	-24.00
	15.00	32.00	-679.00	-161.00	115.00	21.00	-24.00
	15.00	16.00	-724.00	-125.00	-73.00	3.00	-47.00
	21.00	19.00	-691.00	-127.00	-182.00	5.00	-34.00
	22.00	17.00	-760.00	-175.00	-225.00	12.00	-40.00
	10.00	-22.00	-768.00	-205.00	-199.00	14.00	-52.00
	0.00	9.00	-546.00	-155.00	-131.00	-1.00	-67.00
	-2.00	123.00	-165.00	-99.00	-80.00	-21.00	-65.00
	-6.00	235.00	206.00	-2.00	-41.00	-29.00	-73.00
	-14.00	305.00	359.00	171.00	-2.00	-39.00	-45.00
	-14.00	340.00	496.00	301.00	8.00	-35.00	-39.00
	-19.00	351.00	691.00	372.00	-46.00	-53.00	15.00
	-22.00	308.00	896.00	440.00	-47.00	-26.00	62.00
	-18.00	220.00	802.00	454.00	-20.00	21.00	55.00
	-10.00	102.00	541.00	404.00	10.00	53.00	77.00
	-4.00	-12.00	345.00	321.00	29.00	56.00	97.00
	4.00	-61.00	231.00	237.00	1.00	45.00	82.00
	13.00	-66.00	211.00	138.00	-40.00	28.00	36.00
	16.00	-80.00	173.00	50.00	-34.00	12.00	8.00
	15.00	-120.00	94.00	-36.00	6.00	21.00	15.00
	12.00	-145.00	-37.00	-65.00	36.00	31.00	7.00
	14.00	-118.00	-133.00	-96.00	15.00	25.00	-13.00
	15.00	-66.00	-236.00	-185.00	-28.00	19.00	-16.00
	7.00	-46.00	-420.00	-278.00	10.00	18.00	-29.00
	4.00	-2.00	-541.00	-321.00	49.00	19.00	-28.00
	-2.00	7.00	-576.00	-330.00	86.00	18.00	33.00
	-2.00	-9.00	-507.00	-348.00	114.00	26.00	57.00
	4.00	-47.00	-376.00	-327.00	169.00	29.00	14.00
	7.00	-85.00	-185.00	-273.00	180.00	32.00	-11.00
	5.00	-100.00	-28.00	-186.00	187.00	35.00	-7.00
	3.00	-92.00	125.00	-87.00	187.00	23.00	0.00
	3.00	-88.00	117.00	-4.00	144.00	6.00	-10.00
	4.00	-92.00	63.00	138.00	130.00	5.00	5.00
	-5.00	-92.00	160.00	223.00	115.00	9.00	120.00
	-6.00	-59.00	168.00	210.00	85.00	0.00	21.00
	-7.00	25.00	138.00	186.00	70.00	6.00	-40.00
	-8.00	98.00	191.00	188.00	69.00	24.00	-49.00
	-8.00	96.00	212.00	174.00	58.00	29.00	-68.00
	-8.00	33.00	176.00	69.00	17.00	28.00	-57.00
	-4.00	-74.00	60.00	-76.00	0.00	23.00	-67.00
	-10.00	-131.00	-95.00	-192.00	-11.00	15.00	-35.00
	-12.00	-120.00	-164.00	-205.00	-30.00	-1.00	-8.00
	-13.00	-95.00	-160.00	-127.00	-47.00	-24.00	10.00
	-9.00	-56.00	-165.00	-24.00	-56.00	-36.00	2.00
	3.00	-37.00	-135.00	103.00	-79.00	-42.00	49.00
	12.00	-20.00	-113.00	204.00	-83.00	-35.00	41.00
	13.00	-31.00	-142.00	256.00	-53.00	-11.00	30.00
	12.00	-18.00	-110.00	251.00	-34.00	18.00	22.00
	12.00	51.00	-76.00	212.00	-27.00	40.00	0.00
	13.00	67.00	-186.00	43.00	-31.00	37.00	12.00
	9.00	42.00	-184.00	-97.00	-26.00	24.00	31.00
	6.00	-38.00	-96.00	-134.00	-11.00	18.00	53.00
	1.00	-85.00	54.00	-114.00	-33.00	7.00	11.00
	-5.00	-128.00	21.00	-85.00	-9.00	-5.00	-19.00
	-16.00	-98.00	-162.00	-48.00	100.00	-14.00	6.00
	-23.00	-1.00	-100.00	-12.00	120.00	-26.00	0.00
	-13.00	50.00	89.00	50.00	30.00	-32.00	-47.00
	-9.00	75.00	313.00	130.00	-31.00	-36.00	-116.00
	-8.00	81.00	488.00	143.00	-84.00	-35.00	-159.00
	-8.00	40.00	588.00	211.00	-148.00	-40.00	-134.00
	-3.00	43.00	572.00	209.00	-189.00	-41.00	-72.00
	-1.00	67.00	430.00	120.00	-201.00	-43.00	10.00
	3.00	166.00	311.00	88.00	-190.00	-25.00	103.00
	3.00	284.00	178.00	46.00	-101.00	-3.00	173.00
	11.00	367.00	-173.00	-85.00	-13.00	17.00	198.00
	10.00	426.00	-458.00	-176.00	32.00	34.00	229.00
	7.00	459.00	-661.00	-232.00	43.00	48.00	215.00
	13.00	463.00	-728.00	-246.00	49.00	65.00	168.00
	14.00	439.00	-541.00	-245.00	64.00	90.00	31.00
	13.00	322.00	-175.00	-184.00	80.00	87.00	-11.00
	16.00	90.00	131.00	-82.00	132.00	66.00	2.00
	19.00	-136.00	274.00	-6.00	157.00	28.00	-20.00
	6.00	-272.00	356.00	106.00	170.00	9.00	-95.00
	1.00	-397.00	517.00	184.00	147.00	10.00	-124.00
	-6.00	-457.00	641.00	255.00	86.00	-6.00	-159.00
	-11.00	-492.00	616.00	264.00	47.00	-34.00	-171.00
	-13.00	-431.00	500.00	272.00	40.00	-21.00	-112.00
	-16.00	-282.00	300.00	269.00	85.00	0.00	44.00
	-11.00	-114.00	53.00	225.00	225.00	7.00	22.00
	-2.00	57.00	-6.00	69.00	271.00	3.00	-29.00
	3.00	185.00	-122.00	-215.00	196.00	20.00	4.00
	9.00	309.00	-232.00	-426.00	91.00	34.00	-9.00
	12.00	408.00	-330.00	-550.00	-3.00	32.00	-52.00
	0.00	456.00	-406.00	-568.00	-78.00	20.00	-28.00
	-1.00	444.00	-433.00	-452.00	-121.00	9.00	-30.00
	-3.00	322.00	-448.00	-250.00	-146.00	-6.00	-11.00
	-6.00	116.00	-426.00	0.00	-159.00	-9.00	61.00
	-8.00	-56.00	-310.00	205.00	-140.00	3.00	85.00
	-10.00	-152.00	-144.00	362.00	-126.00	-3.00	58.00
	-9.00	-217.00	62.00	580.00	-121.00	-35.00	97.00
	-5.00	-278.00	140.00	638.00	-96.00	-42.00	91.00
	-2.00	-313.00	160.00	554.00	-74.00	-36.00	-24.00
	2.00	-267.00	18.00	397.00	-67.00	-28.00	4.00
	10.00	-230.00	-158.00	168.00	-161.00	-2.00	51.00
	16.00	-128.00	-134.00	-30.00	-167.00	41.00	114.00
	16.00	15.00	-51.00	-55.00	-119.00	58.00	86.00
	23.00	165.00	74.00	1.00	-92.00	57.00	17.00
	34.00	252.00	267.00	38.00	-64.00	40.00	-25.00
	22.00	284.00	336.00	95.00	-29.00	17.00	8.00
	22.00	327.00	204.00	107.00	22.00	14.00	3.00
	18.00	316.00	28.00	69.00	54.00	21.00	-9.00
	15.00	270.00	-83.00	162.00	133.00	26.00	16.00
	1.00	240.00	-370.00	159.00	175.00	23.00	-31.00
	-9.00	191.00	-456.00	104.00	198.00	26.00	-68.00
	-10.00	117.00	-331.00	-26.00	251.00	23.00	-101.00
	-13.00	2.00	-90.00	-245.00	283.00	1.00	-99.00
	-20.00	-144.00	240.00	-401.00	242.00	-8.00	-112.00
	-14.00	-238.00	527.00	-356.00	157.00	-10.00	-128.00
	-13.00	-272.00	584.00	-249.00	100.00	-2.00	-102.00
	-10.00	-310.00	529.00	-155.00	66.00	3.00	-18.00
	-3.00	-431.00	487.00	-75.00	7.00	5.00	9.00
	6.00	-451.00	412.00	0.00	-14.00	5.00	9.00
	4.00	-474.00	214.00	2.00	0.00	10.00	11.00
	-6.00	-483.00	-73.00	-60.00	9.00	8.00	-7.00
	-10.00	-450.00	-286.00	-153.00	-5.00	11.00	-25.00
	-14.00	-350.00	-353.00	-265.00	34.00	19.00	-27.00
	-17.00	-206.00	-361.00	-305.00	63.00	18.00	-25.00
	-5.00	-45.00	-209.00	-255.00	89.00	11.00	0.00
	0.00	137.00	40.00	-113.00	120.00	1.00	53.00
	-1.00	269.00	264.00	7.00	133.00	9.00	77.00
	-1.00	362.00	264.00	125.00	113.00	21.00	61.00
	1.00	415.00	252.00	241.00	46.00	18.00	25.00
	-6.00	459.00	236.00	320.00	-65.00	-4.00	10.00
	2.00	457.00	24.00	329.00	-137.00	-35.00	-1.00
	2.00	421.00	-115.00	342.00	-165.00	-49.00	1.00
	-7.00	362.00	-351.00	246.00	-162.00	-30.00	-28.00
	-3.00	290.00	-417.00	176.00	-131.00	-2.00	-78.00
	2.00	228.00	-364.00	95.00	-100.00	16.00	-80.00
	2.00	160.00	-209.00	-4.00	-81.00	22.00	-57.00
	6.00	102.00	54.00	-54.00	-39.00	42.00	-31.00
	6.00	43.00	356.00	-82.00	-12.00	40.00	-15.00
	12.00	-18.00	416.00	-122.00	2.00	31.00	-14.00
	17.00	-75.00	337.00	-173.00	46.00	31.00	-12.00
	16.00	-118.00	136.00	-229.00	173.00	15.00	-16.00
	17.00	-150.00	17.00	-256.00	223.00	10.00	7.00
	10.00	-182.00	-91.00	-326.00	136.00	5.00	19.00
	6.00	-168.00	-172.00	-334.00	17.00	9.00	31.00
	7.00	-138.00	-185.00	-268.00	-67.00	18.00	6.00
	4.00	-113.00	-84.00	-145.00	-119.00	15.00	-24.00
	3.00	-89.00	-131.00	-88.00	-133.00	19.00	86.00
	-3.00	-64.00	-243.00	25.00	-122.00	33.00	82.00
	-1.00	-34.00	-298.00	135.00	-114.00	21.00	58.00
	-1.00	-50.00	-308.00	128.00	-82.00	9.00	56.00
	-4.00	-95.00	-284.00	73.00	-45.00	5.00	39.00
	-1.00	-125.00	-182.00	139.00	-33.00	10.00	54.00
	7.00	-106.00	-87.00	119.00	-15.00	11.00	115.00
	11.00	-114.00	-138.00	-33.00	-8.00	3.00	74.00
	18.00	-190.00	-199.00	-61.00	12.00	6.00	27.00
	15.00	-214.00	-269.00	6.00	7.00	3.00	61.00
	16.00	-174.00	-312.00	56.00	-10.00	1.00	81.00
	17.00	-121.00	-308.00	85.00	-145.00	5.00	49.00
	16.00	-71.00	-385.00	144.00	-250.00	0.00	0.00
	19.00	-15.00	-368.00	130.00	-326.00	-1.00	-25.00
	19.00	87.00	-202.00	57.00	-240.00	2.00	-11.00
	5.00	184.00	124.00	14.00	-136.00	15.00	17.00
	-5.00	234.00	446.00	34.00	-51.00	16.00	51.00
	-9.00	230.00	589.00	46.00	19.00	16.00	21.00
	-27.00	197.00	558.00	-91.00	137.00	24.00	-46.00
	-28.00	137.00	440.00	-80.00	226.00	30.00	-66.00
	-23.00	41.00	356.00	86.00	295.00	24.00	-58.00
	-21.00	-91.00	172.00	192.00	349.00	-2.00	-72.00
	-32.00	-223.00	-104.00	155.00	367.00	-20.00	0.00
	-30.00	-339.00	-134.00	94.00	390.00	-33.00	51.00
	-18.00	-369.00	110.00	76.00	405.00	-30.00	38.00
	-7.00	-310.00	249.00	83.00	368.00	-26.00	21.00
	4.00	-170.00	41.00	23.00	288.00	-19.00	30.00
	12.00	-15.00	-143.00	-80.00	155.00	-8.00	24.00
	10.00	123.00	-168.00	-48.00	29.00	7.00	-2.00
	12.00	286.00	52.00	49.00	-91.00	4.00	-24.00
	11.00	475.00	303.00	160.00	-171.00	-6.00	-42.00
	-4.00	630.00	570.00	261.00	-137.00	-1.00	-41.00
	-7.00	703.00	681.00	251.00	-64.00	-15.00	-41.00
	-12.00	646.00	735.00	219.00	-31.00	-14.00	-33.00
	-25.00	517.00	568.00	98.00	-50.00	-8.00	-44.00
	-29.00	312.00	421.00	36.00	-66.00	5.00	-36.00
	-24.00	41.00	280.00	23.00	-69.00	3.00	-31.00
	-17.00	-155.00	123.00	37.00	-70.00	16.00	-14.00
	-7.00	-279.00	-43.00	22.00	-32.00	38.00	-33.00
	10.00	-349.00	-146.00	13.00	35.00	47.00	-70.00
	21.00	-370.00	-210.00	-23.00	64.00	57.00	-115.00
	23.00	-288.00	-320.00	-42.00	62.00	57.00	-124.00
	21.00	-183.00	-393.00	-45.00	35.00	47.00	-135.00
	23.00	-32.00	-436.00	-109.00	2.00	34.00	-77.00
	11.00	126.00	-327.00	-161.00	73.00	26.00	11.00
	4.00	259.00	-239.00	-208.00	183.00	31.00	98.00
	7.00	382.00	-242.00	-167.00	171.00	16.00	160.00
	16.00	450.00	-234.00	-10.00	66.00	3.00	162.00
	24.00	533.00	-564.00	68.00	-33.00	0.00	121.00
	13.00	522.00	-872.00	90.00	-92.00	11.00	83.00
	9.00	403.00	-881.00	85.00	-130.00	19.00	55.00
	8.00	248.00	-715.00	-19.00	-149.00	0.00	4.00
	7.00	102.00	-416.00	-166.00	-153.00	-14.00	-53.00
	4.00	-47.00	14.00	-253.00	-156.00	-8.00	3.00
	5.00	-171.00	221.00	-334.00	-147.00	-2.00	63.00
	5.00	-231.00	267.00	-470.00	-130.00	7.00	98.00
	1.00	-248.00	303.00	-425.00	-127.00	20.00	30.00
	4.00	-243.00	370.00	-191.00	-123.00	21.00	-5.00
	9.00	-246.00	366.00	2.00	-136.00	1.00	-65.00
	12.00	-177.00	460.00	195.00	-174.00	-17.00	-66.00
	6.00	-104.00	606.00	407.00	-134.00	-48.00	-30.00
	-1.00	-62.00	802.00	486.00	-81.00	-66.00	-32.00
	-1.00	-66.00	844.00	518.00	-73.00	-72.00	-57.00
	2.00	-54.00	650.00	517.00	-40.00	-44.00	-77.00
	6.00	-62.00	426.00	486.00	-3.00	-11.00	-67.00
	7.00	-114.00	137.00	392.00	57.00	20.00	12.00
	6.00	-128.00	-48.00	266.00	124.00	39.00	69.00
	2.00	-137.00	-175.00	195.00	140.00	49.00	44.00
	-5.00	-162.00	-141.00	102.00	132.00	44.00	31.00
	-8.00	-168.00	-71.00	-69.00	176.00	19.00	84.00
	-7.00	-169.00	-40.00	-178.00	202.00	-9.00	33.00
	-16.00	-120.00	46.00	-184.00	162.00	-10.00	41.00
	-10.00	-74.00	-54.00	-187.00	77.00	8.00	78.00
	-7.00	-80.00	-222.00	-181.00	33.00	29.00	87.00
	6.00	-71.00	-366.00	-136.00	50.00	50.00	2.00
	6.00	-38.00	-462.00	-140.00	52.00	58.00	-66.00
	7.00	-40.00	-413.00	-175.00	76.00	57.00	-58.00
	12.00	-15.00	-320.00	-152.00	85.00	58.00	-60.00
	21.00	6.00	-246.00	-198.00	81.00	51.00	-90.00
	21.00	66.00	-195.00	-252.00	85.00	35.00	-93.00
	14.00	143.00	-263.00	-245.00	116.00	18.00	-93.00
	3.00	143.00	-273.00	-194.00	129.00	21.00	-93.00
	-5.00	151.00	-165.00	-91.00	134.00	7.00	-131.00
	-14.00	150.00	-95.00	-7.00	130.00	-1.00	-143.00
	-19.00	123.00	-57.00	47.00	68.00	1.00	-121.00
	-25.00	77.00	11.00	59.00	-91.00	7.00	-77.00
	-18.00	17.00	55.00	48.00	-276.00	3.00	6.00
	-8.00	-9.00	34.00	57.00	-362.00	-5.00	138.00
	-15.00	-12.00	-46.00	54.00	-349.00	-16.00	212.00
	-12.00	-3.00	-44.00	42.00	-273.00	-17.00	243.00
	-15.00	29.00	-66.00	-13.00	-164.00	-17.00	242.00
	-19.00	74.00	-62.00	-42.00	-67.00	-17.00	157.00
	-18.00	72.00	-26.00	-74.00	-3.00	-5.00	118.00
	-20.00	-27.00	-82.00	-123.00	87.00	-1.00	76.00
	-25.00	-113.00	-271.00	-200.00	161.00	16.00	4.00
	-28.00	-205.00	-398.00	-237.00	249.00	37.00	6.00
	-25.00	-298.00	-256.00	-276.00	329.00	50.00	-21.00
	-23.00	-329.00	-231.00	-355.00	385.00	43.00	-29.00
	-23.00	-290.00	-112.00	-301.00	408.00	38.00	-70.00
	-24.00	-243.00	201.00	-135.00	419.00	18.00	-95.00
	-33.00	-142.00	594.00	129.00	352.00	0.00	-94.00
	-42.00	-26.00	801.00	300.00	218.00	-2.00	-90.00
	-36.00	95.00	721.00	388.00	69.00	-10.00	-59.00
	-35.00	240.00	748.00	498.00	-82.00	-26.00	-70.00
	-30.00	373.00	728.00	513.00	-152.00	-34.00	-6.00
	-19.00	458.00	547.00	452.00	-144.00	-26.00	69.00
	-10.00	497.00	348.00	428.00	-130.00	-12.00	-4.00
	-2.00	474.00	161.00	316.00	-100.00	5.00	-11.00
	13.00	372.00	-67.00	107.00	-88.00	14.00	11.00
	29.00	238.00	-152.00	-113.00	-70.00	17.00	45.00
	45.00	114.00	-240.00	-225.00	-67.00	25.00	52.00
	53.00	14.00	-439.00	-235.00	-69.00	33.00	-1.00
	59.00	-127.00	-584.00	-190.00	-69.00	28.00	-33.00
	66.00	-283.00	-589.00	-121.00	-66.00	14.00	-34.00
	63.00	-321.00	-472.00	-85.00	-61.00	6.00	-37.00
	63.00	-313.00	-201.00	-5.00	-36.00	0.00	-33.00
	58.00	-273.00	140.00	150.00	4.00	-28.00	-38.00
	43.00	-229.00	435.00	284.00	44.00	-32.00	-23.00
	30.00	-166.00	654.00	267.00	20.00	-6.00	-21.00
	24.00	-61.00	615.00	74.00	-36.00	-4.00	-28.00
	25.00	96.00	441.00	-156.00	-106.00	-13.00	-44.00
	25.00	274.00	334.00	-185.00	-174.00	-7.00	-25.00
	23.00	360.00	217.00	-102.00	-214.00	8.00	-13.00
	15.00	353.00	-4.00	-75.00	-187.00	14.00	-13.00
	12.00	332.00	-302.00	-175.00	-135.00	6.00	-2.00
	8.00	315.00	-446.00	-175.00	-122.00	-12.00	6.00
	6.00	296.00	-464.00	-115.00	-74.00	-14.00	-10.00
	6.00	267.00	-477.00	-39.00	27.00	0.00	-14.00
	2.00	235.00	-398.00	97.00	85.00	5.00	-10.00
	5.00	164.00	-245.00	219.00	119.00	11.00	-4.00
	11.00	67.00	-232.00	208.00	161.00	33.00	11.00
	5.00	-69.00	-287.00	158.00	184.00	31.00	35.00
	0.00	-243.00	-285.00	128.00	203.00	30.00	72.00
	8.00	-320.00	-246.00	-25.00	182.00	39.00	69.00
	9.00	-349.00	-134.00	-141.00	164.00	57.00	14.00
	2.00	-384.00	-49.00	-190.00	139.00	76.00	22.00
	5.00	-383.00	-69.00	-173.00	81.00	51.00	18.00
	5.00	-353.00	-64.00	-121.00	51.00	19.00	23.00
	11.00	-291.00	48.00	-46.00	32.00	2.00	33.00
	15.00	-225.00	114.00	-10.00	-14.00	-20.00	39.00
	14.00	-116.00	301.00	84.00	-51.00	-44.00	-12.00
	15.00	45.00	384.00	158.00	-62.00	-43.00	-5.00
	10.00	115.00	174.00	176.00	-63.00	-28.00	-19.00
	8.00	143.00	32.00	152.00	-64.00	-9.00	-22.00
	10.00	186.00	12.00	78.00	-46.00	8.00	-16.00
	7.00	232.00	-66.00	-49.00	-24.00	29.00	-20.00
	5.00	186.00	-233.00	-184.00	-11.00	36.00	-71.00
	5.00	-2.00	-196.00	-368.00	-50.00	35.00	-103.00
	14.00	-231.00	-24.00	-374.00	-88.00	54.00	-93.00
	7.00	-355.00	230.00	-256.00	-85.00	58.00	-93.00
	5.00	-422.00	573.00	-39.00	-47.00	50.00	-32.00
	-2.00	-354.00	703.00	158.00	18.00	36.00	77.00
	-5.00	-206.00	688.00	334.00	66.00	8.00	150.00
	-22.00	-28.00	636.00	506.00	89.00	-33.00	184.00
	-40.00	210.00	437.00	599.00	65.00	-62.00	195.00
	-34.00	512.00	279.00	577.00	34.00	-75.00	164.00
	-30.00	797.00	56.00	422.00	21.00	-64.00	80.00
	-27.00	977.00	-149.00	210.00	18.00	-32.00	72.00
	-32.00	1015.00	-243.00	29.00	40.00	-2.00	36.00
	-36.00	959.00	-276.00	-92.00	69.00	9.00	11.00
	-40.00	751.00	-356.00	-223.00	72.00	14.00	-9.00
	-38.00	415.00	-416.00	-252.00	69.00	12.00	-45.00
	-27.00	93.00	-380.00	-235.00	60.00	24.00	-56.00
	-18.00	-148.00	-284.00	-178.00	47.00	39.00	-39.00
	-17.00	-282.00	-274.00	-45.00	93.00	42.00	-31.00
	-15.00	-397.00	-159.00	35.00	200.00	38.00	-46.00
	-5.00	-433.00	-20.00	51.00	194.00	20.00	-59.00
	10.00	-394.00	47.00	110.00	121.00	10.00	-58.00
	15.00	-349.00	129.00	110.00	42.00	12.00	-63.00
	3.00	-276.00	171.00	56.00	-21.00	13.00	-103.00
	7.00	-181.00	215.00	44.00	-84.00	9.00	-119.00
	6.00	-147.00	161.00	3.00	-143.00	5.00	-126.00
	7.00	-183.00	-54.00	-59.00	-196.00	8.00	-104.00
	10.00	-290.00	-364.00	-137.00	-257.00	0.00	-68.00
	11.00	-412.00	-579.00	-239.00	-291.00	0.00	-37.00
	14.00	-367.00	-654.00	-317.00	-257.00	8.00	47.00
	10.00	-300.00	-665.00	-323.00	-192.00	21.00	94.00
	6.00	-221.00	-509.00	-297.00	-114.00	38.00	121.00
	4.00	-191.00	-462.00	-221.00	-41.00	50.00	123.00
	1.00	-162.00	-319.00	-192.00	45.00	52.00	136.00
	10.00	-4.00	-94.00	-123.00	148.00	53.00	66.00
	8.00	149.00	83.00	-109.00	209.00	33.00	-16.00
	2.00	294.00	242.00	-90.00	264.00	-11.00	-61.00
	-2.00	389.00	494.00	-144.00	254.00	-5.00	-27.00
	2.00	387.00	745.00	-206.00	244.00	18.00	68.00
	2.00	346.00	946.00	-137.00	213.00	38.00	52.00
	-7.00	322.00	1028.00	-49.00	152.00	42.00	89.00
	-6.00	286.00	928.00	79.00	87.00	22.00	36.00
	-12.00	272.00	670.00	151.00	44.00	-1.00	-35.00
	-12.00	243.00	323.00	267.00	11.00	-18.00	-42.00
	-10.00	173.00	190.00	450.00	-14.00	-30.00	-29.00
	-8.00	43.00	178.00	647.00	-15.00	-37.00	-38.00
	-3.00	-65.00	171.00	715.00	-37.00	-32.00	-42.00
	2.00	-114.00	14.00	581.00	-137.00	-35.00	-42.00
	4.00	-96.00	-159.00	393.00	-154.00	-33.00	-13.00
	4.00	-48.00	-269.00	177.00	-130.00	-21.00	-11.00
	6.00	8.00	-428.00	-39.00	-105.00	-12.00	-22.00
	5.00	35.00	-540.00	-160.00	-99.00	-17.00	-10.00
	0.00	38.00	-592.00	-195.00	-57.00	-22.00	-19.00
	-3.00	48.00	-484.00	-157.00	-9.00	-12.00	-13.00
	-4.00	74.00	-320.00	-52.00	53.00	-10.00	5.00
	-4.00	81.00	-287.00	-27.00	104.00	-5.00	96.00
	-7.00	38.00	-208.00	-27.00	126.00	-3.00	207.00
	-4.00	-44.00	-22.00	-103.00	126.00	6.00	121.00
	-6.00	-130.00	65.00	-138.00	144.00	27.00	40.00
	-6.00	-209.00	-20.00	-184.00	148.00	36.00	24.00
	4.00	-277.00	-10.00	-167.00	140.00	53.00	-5.00
	8.00	-280.00	-29.00	-124.00	72.00	39.00	-18.00
	-6.00	-276.00	-52.00	-76.00	27.00	27.00	-30.00
	-9.00	-273.00	49.00	-19.00	48.00	21.00	-46.00
	-7.00	-218.00	261.00	66.00	141.00	27.00	-57.00
	0.00	-135.00	174.00	122.00	140.00	21.00	-68.00
	-4.00	-71.00	41.00	64.00	35.00	-7.00	-58.00
	0.00	12.00	-35.00	10.00	-64.00	-23.00	-67.00
	4.00	18.00	13.00	-25.00	-169.00	4.00	-97.00
	9.00	-12.00	70.00	-70.00	-221.00	27.00	-114.00
	13.00	-46.00	87.00	-132.00	-156.00	38.00	-63.00
	15.00	-57.00	-52.00	-171.00	-100.00	27.00	43.00
	3.00	-59.00	-185.00	-203.00	-73.00	4.00	20.00
	-3.00	-30.00	-317.00	-212.00	-50.00	-7.00	20.00
	0.00	-5.00	-317.00	-139.00	-14.00	0.00	21.00
	1.00	18.00	-320.00	-43.00	19.00	15.00	19.00
	0.00	64.00	-426.00	-20.00	28.00	31.00	33.00
	-1.00	89.00	-329.00	-3.00	42.00	44.00	57.00
	-2.00	132.00	126.00	80.00	-128.00	34.00	37.00
	-1.00	60.00	689.00	242.00	-263.00	20.00	-1.00
	6.00	-112.00	1061.00	344.00	-263.00	15.00	-40.00
	9.00	-229.00	867.00	177.00	-207.00	18.00	-22.00
	2.00	-222.00	429.00	-37.00	-135.00	17.00	-24.00
	-7.00	-169.00	-42.00	-146.00	-88.00	22.00	-13.00
	-12.00	-85.00	-364.00	-137.00	-4.00	12.00	-11.00
	-3.00	23.00	-510.00	-72.00	66.00	-10.00	-45.00
	-1.00	195.00	-341.00	34.00	143.00	-20.00	-43.00
	7.00	301.00	-56.00	147.00	214.00	-18.00	-11.00
	9.00	377.00	168.00	148.00	302.00	-34.00	-9.00
	6.00	471.00	214.00	108.00	383.00	-41.00	-27.00
	8.00	527.00	275.00	163.00	405.00	-42.00	-59.00
	18.00	517.00	292.00	229.00	306.00	-27.00	-85.00
	17.00	413.00	254.00	212.00	169.00	-9.00	-29.00
	8.00	270.00	95.00	113.00	22.00	8.00	-54.00
	6.00	160.00	-34.00	85.00	-82.00	25.00	-40.00
	2.00	81.00	-46.00	45.00	-157.00	33.00	-30.00
	7.00	39.00	-30.00	30.00	-202.00	26.00	-4.00
	14.00	44.00	13.00	61.00	-168.00	50.00	9.00
	9.00	31.00	25.00	119.00	-49.00	59.00	-3.00
	10.00	-60.00	-150.00	88.00	43.00	45.00	-21.00
	10.00	-222.00	-208.00	76.00	144.00	23.00	-44.00
	15.00	-271.00	-179.00	94.00	201.00	10.00	-10.00
	14.00	-241.00	-123.00	96.00	261.00	20.00	44.00
	8.00	-177.00	-65.00	-59.00	304.00	34.00	79.00
	13.00	-113.00	-82.00	-203.00	336.00	32.00	85.00
	8.00	-101.00	-51.00	-206.00	296.00	35.00	76.00
	-1.00	-77.00	-91.00	-185.00	144.00	28.00	60.00
	-3.00	-50.00	-349.00	-190.00	-4.00	32.00	63.00
	-2.00	-12.00	-484.00	-188.00	-98.00	33.00	40.00
	1.00	22.00	-440.00	-140.00	-123.00	19.00	0.00
	5.00	39.00	-254.00	-23.00	-130.00	2.00	-75.00
	4.00	60.00	-36.00	43.00	-118.00	-16.00	-136.00
	4.00	77.00	206.00	48.00	-107.00	-13.00	-134.00
	2.00	77.00	381.00	-34.00	-105.00	-22.00	7.00
	7.00	34.00	354.00	-116.00	-100.00	-30.00	84.00
	7.00	46.00	250.00	-144.00	-91.00	-22.00	117.00
	6.00	67.00	126.00	-176.00	-77.00	-5.00	108.00
	0.00	90.00	-10.00	-158.00	-82.00	2.00	33.00
	-4.00	93.00	-130.00	-161.00	-85.00	1.00	-7.00
	-2.00	97.00	-225.00	-168.00	-85.00	4.00	11.00
	-2.00	90.00	-274.00	-153.00	-95.00	2.00	43.00
	0.00	86.00	-258.00	-100.00	-75.00	11.00	25.00
	-2.00	95.00	-158.00	-108.00	-35.00	26.00	30.00
	-4.00	100.00	-47.00	-31.00	-11.00	31.00	76.00
	-1.00	60.00	-4.00	49.00	-5.00	26.00	62.00
	-9.00	-70.00	71.00	122.00	-6.00	14.00	16.00
	-18.00	-239.00	181.00	188.00	-18.00	8.00	-2.00
	-18.00	-326.00	305.00	193.00	-32.00	-4.00	-6.00
	-8.00	-359.00	432.00	191.00	-55.00	-19.00	7.00
	4.00	-349.00	431.00	216.00	-117.00	-29.00	-16.00
	6.00	-284.00	113.00	182.00	-159.00	-33.00	-38.00
	7.00	-162.00	-192.00	122.00	-149.00	-41.00	-43.00
	11.00	-4.00	-268.00	51.00	-117.00	-30.00	-38.00
	12.00	145.00	-131.00	26.00	-86.00	-25.00	-26.00
	9.00	290.00	72.00	26.00	-45.00	-14.00	-8.00
	3.00	358.00	226.00	62.00	2.00	-20.00	-19.00
	-2.00	349.00	303.00	131.00	38.00	-35.00	-2.00
	-8.00	279.00	233.00	111.00	82.00	-51.00	-56.00
	-16.00	151.00	-53.00	51.00	136.00	-13.00	-47.00
	-17.00	-12.00	-307.00	67.00	171.00	32.00	-22.00
	-9.00	-156.00	-496.00	96.00	173.00	43.00	-19.00
	-3.00	-214.00	-506.00	24.00	142.00	58.00	-10.00
	3.00	-233.00	-323.00	-181.00	106.00	61.00	4.00
	7.00	-239.00	35.00	-351.00	91.00	57.00	10.00
	13.00	-292.00	329.00	-386.00	72.00	50.00	33.00
	18.00	-308.00	405.00	-287.00	62.00	32.00	49.00
	13.00	-232.00	396.00	-2.00	36.00	21.00	52.00
	0.00	-144.00	241.00	255.00	8.00	21.00	72.00
	-7.00	-27.00	83.00	354.00	-1.00	18.00	39.00
	-12.00	141.00	-44.00	351.00	1.00	5.00	4.00
	-13.00	235.00	-161.00	424.00	1.00	-4.00	-12.00
	-11.00	314.00	-88.00	417.00	2.00	7.00	-20.00
	-13.00	391.00	-25.00	274.00	17.00	1.00	-24.00
	-16.00	479.00	47.00	55.00	139.00	2.00	-36.00
	-13.00	464.00	169.00	-118.00	286.00	20.00	-84.00
	2.00	331.00	211.00	-105.00	281.00	31.00	-107.00
	-2.00	85.00	362.00	-28.00	172.00	23.00	-80.00
	-11.00	-27.00	325.00	-17.00	46.00	12.00	35.00
	-8.00	-37.00	282.00	5.00	-125.00	-12.00	16.00
	-5.00	-4.00	266.00	-42.00	-234.00	-33.00	9.00
	6.00	53.00	253.00	-95.00	-278.00	-9.00	68.00
	10.00	99.00	86.00	-141.00	-278.00	14.00	49.00
	15.00	151.00	-76.00	-221.00	-283.00	19.00	17.00
	12.00	163.00	-191.00	-282.00	-197.00	26.00	11.00
	5.00	203.00	-186.00	-170.00	-70.00	33.00	20.00
	1.00	220.00	-181.00	-51.00	44.00	32.00	24.00
	-4.00	162.00	-206.00	4.00	127.00	24.00	9.00
	1.00	112.00	-220.00	46.00	125.00	29.00	-12.00
	0.00	87.00	-249.00	74.00	61.00	25.00	-21.00
	-1.00	160.00	-163.00	144.00	49.00	22.00	-25.00
	-3.00	192.00	-219.00	124.00	39.00	4.00	-25.00
	-2.00	169.00	-360.00	55.00	40.00	-14.00	-12.00
	-3.00	122.00	-338.00	53.00	73.00	-2.00	-18.00
	-2.00	80.00	-286.00	79.00	120.00	8.00	0.00
	1.00	57.00	-145.00	81.00	149.00	12.00	-18.00
	-6.00	11.00	97.00	28.00	165.00	15.00	-56.00
	-13.00	-27.00	232.00	-32.00	194.00	21.00	-58.00
	-10.00	-86.00	36.00	-53.00	178.00	18.00	-69.00
	-5.00	-166.00	-143.00	-103.00	153.00	6.00	-44.00
	-4.00	-257.00	-183.00	-104.00	119.00	-10.00	18.00
	-12.00	-344.00	-64.00	-148.00	79.00	-23.00	45.00
	0.00	-366.00	171.00	-146.00	51.00	-17.00	-3.00
	12.00	-364.00	284.00	-136.00	29.00	-2.00	-34.00
	16.00	-385.00	361.00	-69.00	14.00	12.00	-80.00
	19.00	-376.00	446.00	33.00	46.00	11.00	-59.00
	16.00	-341.00	425.00	137.00	159.00	9.00	-48.00
	10.00	-322.00	364.00	180.00	189.00	9.00	-2.00
	11.00	-329.00	-31.00	69.00	112.00	7.00	95.00
	12.00	-317.00	-399.00	-44.00	-5.00	5.00	155.00
	6.00	-255.00	-405.00	-102.00	-106.00	0.00	184.00
	4.00	-136.00	-303.00	-91.00	-162.00	10.00	177.00
	7.00	23.00	-183.00	29.00	-176.00	27.00	103.00
	5.00	131.00	-69.00	98.00	-147.00	58.00	90.00
	5.00	212.00	83.00	115.00	-144.00	50.00	74.00
	3.00	284.00	245.00	233.00	-152.00	-6.00	-46.00
	1.00	338.00	462.00	404.00	-152.00	-29.00	-51.00
	-7.00	347.00	579.00	419.00	-153.00	-15.00	-72.00
	-12.00	334.00	410.00	280.00	-138.00	5.00	-45.00
	-2.00	267.00	151.00	55.00	-128.00	7.00	64.00
	-3.00	146.00	-79.00	-165.00	-145.00	14.00	14.00
	-2.00	8.00	-300.00	-312.00	-151.00	15.00	-30.00
	3.00	-125.00	-400.00	-355.00	-110.00	11.00	-39.00
	11.00	-219.00	-360.00	-245.00	-33.00	-6.00	-43.00
	17.00	-250.00	-333.00	-106.00	53.00	-15.00	-27.00
	18.00	-202.00	-299.00	6.00	70.00	-15.00	-2.00
	13.00	-114.00	-265.00	65.00	73.00	-9.00	-2.00
	11.00	-91.00	-204.00	76.00	99.00	5.00	-25.00
	10.00	-155.00	-138.00	130.00	99.00	19.00	-26.00
	11.00	-118.00	-153.00	93.00	21.00	28.00	-33.00
	12.00	-41.00	-104.00	50.00	-38.00	22.00	-47.00
	9.00	67.00	66.00	9.00	-17.00	28.00	-57.00
	4.00	196.00	193.00	-28.00	16.00	45.00	-41.00
	-3.00	256.00	242.00	-77.00	12.00	50.00	-38.00
	-2.00	283.00	253.00	-142.00	-29.00	41.00	-38.00
	2.00	313.00	247.00	-139.00	32.00	26.00	-3.00
	9.00	371.00	176.00	-114.00	89.00	23.00	45.00
	9.00	399.00	60.00	-96.00	147.00	19.00	40.00
	3.00	354.00	126.00	-54.00	185.00	25.00	22.00
	3.00	217.00	179.00	24.00	225.00	8.00	14.00
	8.00	14.00	34.00	-14.00	218.00	14.00	51.00
	8.00	-84.00	-85.00	-79.00	204.00	23.00	72.00
	4.00	-101.00	-62.00	-74.00	183.00	20.00	57.00
	-11.00	-105.00	-140.00	-56.00	140.00	0.00	21.00
	-18.00	-58.00	-76.00	32.00	54.00	-33.00	-5.00
	-18.00	-7.00	33.00	167.00	-55.00	-58.00	-20.00
	-12.00	41.00	8.00	187.00	-120.00	-73.00	-18.00
	-8.00	96.00	28.00	169.00	-120.00	-73.00	3.00
	-10.00	151.00	128.00	130.00	12.00	-51.00	24.00
	-12.00	197.00	32.00	102.00	124.00	-36.00	-6.00
	-10.00	207.00	-142.00	93.00	88.00	-37.00	-58.00
	-7.00	166.00	-221.00	14.00	36.00	-23.00	-86.00
	4.00	107.00	-110.00	-40.00	13.00	-15.00	-60.00
	2.00	16.00	69.00	-42.00	0.00	-15.00	-35.00
	-7.00	-57.00	170.00	-204.00	4.00	-19.00	-44.00
	-9.00	-106.00	166.00	-357.00	27.00	-9.00	-25.00
	0.00	-170.00	127.00	-376.00	47.00	8.00	64.00
	8.00	-270.00	-54.00	-356.00	60.00	19.00	73.00
	13.00	-337.00	-160.00	-261.00	66.00	35.00	66.00
	17.00	-375.00	-161.00	-56.00	52.00	56.00	34.00
	14.00	-430.00	-139.00	85.00	4.00	75.00	16.00
	2.00	-470.00	19.00	163.00	-54.00	83.00	13.00
	-2.00	-493.00	200.00	247.00	-107.00	74.00	22.00
	2.00	-494.00	283.00	348.00	-127.00	51.00	32.00
	1.00	-407.00	358.00	369.00	-93.00	27.00	-5.00
	6.00	-251.00	222.00	278.00	-61.00	22.00	-7.00
	5.00	-35.00	-59.00	141.00	-44.00	25.00	-9.00
	7.00	192.00	-337.00	28.00	-39.00	30.00	-25.00
	9.00	325.00	-490.00	0.00	-28.00	27.00	-18.00
	9.00	410.00	-439.00	-2.00	7.00	25.00	-7.00
	8.00	490.00	-324.00	-39.00	40.00	27.00	-4.00
	6.00	532.00	-72.00	-66.00	29.00	11.00	3.00
	3.00	546.00	137.00	-36.00	12.00	-13.00	-7.00
	-4.00	486.00	275.00	88.00	-34.00	-20.00	-30.00
	-15.00	365.00	294.00	143.00	-86.00	-22.00	-18.00
	-20.00	242.00	221.00	115.00	-103.00	-16.00	11.00
	-22.00	156.00	183.00	-50.00	-77.00	-4.00	57.00
	-20.00	97.00	61.00	-102.00	-28.00	17.00	63.00
	-18.00	43.00	-173.00	-11.00	23.00	49.00	22.00
	-1.00	47.00	-250.00	38.00	91.00	59.00	-10.00
	10.00	81.00	-258.00	-25.00	136.00	43.00	-4.00
	5.00	53.00	-163.00	-35.00	127.00	23.00	-19.00
	-14.00	10.00	-116.00	67.00	64.00	-2.00	-48.00
	-12.00	-22.00	-111.00	198.00	-7.00	-29.00	-66.00
	-8.00	-84.00	69.00	211.00	-31.00	-20.00	-98.00
	1.00	-118.00	248.00	173.00	-37.00	-12.00	-77.00
	4.00	-116.00	358.00	131.00	-76.00	-22.00	-64.00
	9.00	-139.00	445.00	91.00	-169.00	-23.00	-70.00
	9.00	-151.00	341.00	21.00	-150.00	2.00	-53.00
	4.00	-95.00	2.00	-87.00	-90.00	13.00	-43.00
	7.00	-43.00	-169.00	-184.00	-56.00	15.00	-35.00
	12.00	0.00	-143.00	-234.00	-39.00	3.00	4.00
	7.00	67.00	-3.00	-213.00	-17.00	-14.00	70.00
	5.00	152.00	169.00	-114.00	17.00	-12.00	105.00
	7.00	198.00	191.00	-36.00	56.00	-22.00	125.00
	-2.00	208.00	191.00	33.00	74.00	-29.00	115.00
	-8.00	213.00	289.00	193.00	86.00	-19.00	106.00
	-4.00	190.00	247.00	260.00	130.00	-12.00	85.00
	0.00	176.00	86.00	223.00	193.00	-7.00	84.00
	1.00	94.00	-49.00	151.00	217.00	17.00	116.00
	1.00	-64.00	-121.00	74.00	167.00	35.00	95.00
	5.00	-216.00	-139.00	-17.00	87.00	39.00	63.00
	5.00	-276.00	-224.00	-119.00	35.00	39.00	39.00
	11.00	-267.00	-428.00	-191.00	15.00	50.00	7.00
	16.00	-221.00	-607.00	-347.00	2.00	66.00	-31.00
	16.00	-185.00	-758.00	-541.00	12.00	69.00	-53.00
	19.00	-105.00	-636.00	-513.00	141.00	54.00	-98.00
	26.00	16.00	-384.00	-414.00	234.00	38.00	-108.00
	24.00	122.00	-45.00	-332.00	203.00	23.00	-66.00
	13.00	205.00	255.00	-134.00	127.00	-4.00	-28.00
	5.00	211.00	473.00	120.00	47.00	-22.00	-2.00
	1.00	171.00	539.00	334.00	0.00	-31.00	1.00
	-4.00	123.00	393.00	431.00	-45.00	-39.00	-11.00
	-8.00	9.00	442.00	586.00	-86.00	-35.00	-45.00
	-6.00	-104.00	449.00	647.00	-85.00	-10.00	-38.00
	-13.00	-158.00	347.00	490.00	-71.00	14.00	-26.00
	-22.00	-155.00	186.00	320.00	-44.00	16.00	-27.00
	-22.00	-104.00	156.00	240.00	-31.00	3.00	-15.00
	-22.00	-36.00	114.00	28.00	-29.00	-3.00	-16.00
	-30.00	44.00	20.00	-201.00	-52.00	4.00	-15.00
	-33.00	109.00	-142.00	-252.00	-99.00	1.00	-71.00
	-23.00	135.00	-210.00	-165.00	-117.00	-17.00	-48.00
	-19.00	91.00	-163.00	-65.00	-112.00	-33.00	60.00
	-13.00	47.00	-188.00	38.00	-67.00	-41.00	-4.00
	-3.00	-36.00	-143.00	114.00	-63.00	-33.00	-27.00
	9.00	-161.00	-120.00	131.00	-60.00	-19.00	7.00
	14.00	-371.00	-148.00	138.00	-52.00	-33.00	33.00
	14.00	-491.00	-336.00	28.00	-56.00	-20.00	44.00
	18.00	-474.00	-409.00	-73.00	-55.00	20.00	5.00
	28.00	-415.00	-387.00	-267.00	-25.00	26.00	-34.00
	34.00	-359.00	-292.00	-490.00	41.00	46.00	-47.00
	29.00	-235.00	-110.00	-466.00	-7.00	61.00	-68.00
	27.00	-63.00	-28.00	-331.00	-70.00	47.00	-60.00
	22.00	118.00	58.00	-221.00	-129.00	15.00	-3.00
	7.00	199.00	452.00	-16.00	-177.00	-2.00	32.00
	-3.00	226.00	644.00	228.00	-218.00	-8.00	63.00
	4.00	266.00	520.00	377.00	-189.00	6.00	40.00
	-7.00	273.00	106.00	401.00	-109.00	35.00	-10.00
	-6.00	274.00	-182.00	296.00	20.00	57.00	-45.00
	-3.00	280.00	-186.00	124.00	132.00	86.00	-26.00
	-5.00	219.00	-13.00	-91.00	159.00	74.00	-4.00
	6.00	159.00	129.00	-236.00	294.00	60.00	13.00
	9.00	173.00	350.00	-247.00	489.00	54.00	44.00
	8.00	268.00	402.00	-295.00	520.00	34.00	43.00
	15.00	358.00	95.00	-421.00	432.00	28.00	2.00
	10.00	322.00	-297.00	-481.00	213.00	27.00	-21.00
	14.00	273.00	-621.00	-381.00	13.00	30.00	-31.00
	15.00	193.00	-856.00	-272.00	-144.00	35.00	-18.00
	-1.00	121.00	-765.00	-117.00	-203.00	42.00	-19.00
	-16.00	45.00	-495.00	39.00	-227.00	23.00	-34.00
	-25.00	-39.00	-208.00	270.00	-204.00	-26.00	-7.00
	-29.00	-136.00	165.00	543.00	-114.00	-70.00	37.00
	-28.00	-163.00	695.00	749.00	23.00	-82.00	63.00
	-31.00	-144.00	1059.00	802.00	113.00	-50.00	58.00
	-24.00	-84.00	1138.00	713.00	218.00	-35.00	75.00
	-13.00	-43.00	1021.00	550.00	289.00	-49.00	100.00
	2.00	-32.00	681.00	362.00	311.00	-42.00	106.00
	4.00	-15.00	377.00	267.00	334.00	-22.00	116.00
	8.00	7.00	93.00	107.00	348.00	-2.00	79.00
	13.00	32.00	-63.00	-35.00	272.00	19.00	59.00
	16.00	57.00	-145.00	-140.00	111.00	46.00	29.00
	23.00	70.00	-260.00	-199.00	-22.00	63.00	-1.00
	26.00	74.00	-419.00	-221.00	-100.00	57.00	87.00
	26.00	54.00	-504.00	-205.00	-132.00	41.00	19.00
	18.00	60.00	-495.00	-170.00	-142.00	37.00	-38.00
	15.00	76.00	-513.00	-138.00	-125.00	31.00	-72.00
	11.00	62.00	-415.00	-145.00	-125.00	15.00	-71.00
	3.00	59.00	-251.00	-117.00	-123.00	14.00	-47.00
	2.00	34.00	-71.00	-43.00	-126.00	13.00	-46.00
	3.00	-7.00	69.00	-76.00	-123.00	11.00	-74.00
	-1.00	-53.00	105.00	-136.00	-116.00	12.00	-85.00
	-5.00	-61.00	67.00	-187.00	-105.00	2.00	-48.00
	-7.00	-40.00	62.00	-133.00	-93.00	-6.00	-32.00
	-5.00	-37.00	55.00	-79.00	-79.00	-12.00	-39.00
	-2.00	-62.00	34.00	-75.00	-70.00	-28.00	-57.00
	3.00	-62.00	-58.00	-130.00	-62.00	-16.00	-52.00
	-1.00	-64.00	-130.00	-215.00	-44.00	-4.00	-26.00
	-5.00	-88.00	-231.00	-211.00	-24.00	5.00	-38.00
	0.00	-115.00	-203.00	-177.00	-17.00	7.00	-53.00
	3.00	-198.00	-161.00	-132.00	-19.00	7.00	-53.00
	-4.00	-259.00	-115.00	-60.00	-15.00	8.00	-20.00
	-8.00	-274.00	-86.00	-16.00	-10.00	11.00	-9.00
	-8.00	-281.00	-45.00	-20.00	-13.00	-1.00	3.00
	-6.00	-239.00	47.00	62.00	-9.00	-6.00	17.00
	-6.00	-135.00	90.00	123.00	-3.00	-9.00	-19.00
	-10.00	-53.00	132.00	95.00	6.00	3.00	-101.00
	-7.00	53.00	118.00	24.00	15.00	19.00	-101.00
	-5.00	146.00	81.00	11.00	17.00	20.00	-71.00
	0.00	204.00	63.00	34.00	2.00	21.00	-4.00
	6.00	198.00	90.00	42.00	-1.00	11.00	133.00
	4.00	140.00	-34.00	40.00	-25.00	3.00	154.00
	6.00	123.00	-332.00	45.00	-70.00	-3.00	82.00
	8.00	131.00	-533.00	30.00	-92.00	-8.00	26.00
	2.00	119.00	-424.00	-10.00	-86.00	-6.00	4.00
	-6.00	109.00	-113.00	-77.00	-61.00	-9.00	-22.00
	-7.00	127.00	151.00	-116.00	-27.00	-2.00	-33.00
	-3.00	147.00	362.00	-98.00	12.00	-2.00	-12.00
	7.00	152.00	490.00	-92.00	66.00	-2.00	72.00
	6.00	147.00	552.00	-88.00	99.00	-3.00	233.00
	-8.00	100.00	420.00	-9.00	136.00	-4.00	276.00
	-7.00	20.00	303.00	66.00	171.00	0.00	191.00
	-5.00	-63.00	84.00	117.00	184.00	14.00	129.00
	-6.00	-123.00	-73.00	177.00	178.00	29.00	87.00
	-1.00	-148.00	-203.00	202.00	151.00	68.00	49.00
	-8.00	-170.00	-262.00	170.00	133.00	75.00	12.00
	-12.00	-143.00	-187.00	110.00	105.00	60.00	-23.00
	-14.00	-75.00	-54.00	5.00	75.00	40.00	-38.00
	-21.00	-17.00	8.00	-11.00	41.00	30.00	-32.00
	-18.00	52.00	-32.00	65.00	6.00	-6.00	-45.00
	-17.00	112.00	-30.00	119.00	-37.00	-52.00	-49.00
	-15.00	150.00	60.00	256.00	-64.00	-65.00	-59.00
	-2.00	157.00	143.00	375.00	-86.00	-48.00	-72.00
	5.00	167.00	171.00	444.00	-88.00	-41.00	-55.00
	9.00	122.00	185.00	446.00	-80.00	-40.00	-76.00
	19.00	12.00	250.00	301.00	-64.00	-24.00	-82.00
	17.00	-124.00	299.00	53.00	-34.00	5.00	-70.00
	14.00	-274.00	309.00	-82.00	-23.00	29.00	-62.00
	19.00	-311.00	237.00	-138.00	39.00	36.00	-41.00
	23.00	-288.00	51.00	-129.00	132.00	45.00	4.00
	30.00	-284.00	-178.00	-176.00	80.00	57.00	20.00
	31.00	-206.00	-457.00	-258.00	-33.00	46.00	-4.00
	20.00	-110.00	-585.00	-283.00	-122.00	18.00	-24.00
	11.00	108.00	-584.00	-185.00	-107.00	-8.00	-23.00
	9.00	325.00	-230.00	0.00	-47.00	-5.00	-32.00
	3.00	418.00	-14.00	60.00	23.00	0.00	-39.00
	-9.00	463.00	271.00	46.00	88.00	1.00	-58.00
	-15.00	456.00	474.00	71.00	101.00	8.00	-67.00
	-5.00	478.00	370.00	144.00	108.00	2.00	-68.00
	2.00	479.00	272.00	170.00	102.00	-13.00	-53.00
	1.00	413.00	160.00	160.00	74.00	-15.00	-24.00
	-10.00	326.00	-153.00	33.00	64.00	-2.00	28.00
	-13.00	243.00	-459.00	-155.00	77.00	9.00	76.00
	-12.00	170.00	-263.00	-244.00	87.00	32.00	95.00
	-7.00	145.00	-76.00	-385.00	37.00	30.00	61.00
	6.00	103.00	76.00	-433.00	-15.00	50.00	27.00
	15.00	48.00	39.00	-380.00	-36.00	69.00	21.00
	13.00	5.00	26.00	-259.00	-61.00	65.00	41.00
	12.00	-46.00	153.00	-113.00	-91.00	56.00	46.00
	11.00	-66.00	292.00	75.00	-86.00	38.00	27.00
	13.00	-23.00	459.00	326.00	-53.00	10.00	-7.00
	6.00	-9.00	494.00	503.00	-12.00	2.00	-39.00
	3.00	4.00	396.00	535.00	3.00	-15.00	-47.00
	1.00	15.00	302.00	491.00	34.00	-30.00	-57.00
	-8.00	12.00	201.00	424.00	56.00	-34.00	-55.00
	-12.00	-16.00	107.00	336.00	82.00	-37.00	-5.00
	-12.00	-61.00	42.00	166.00	80.00	-31.00	19.00
	-9.00	-146.00	-123.00	17.00	58.00	-10.00	9.00
	-11.00	-235.00	-274.00	-75.00	42.00	0.00	-16.00
	-14.00	-323.00	-321.00	-140.00	49.00	17.00	-12.00
	3.00	-368.00	-404.00	-199.00	61.00	40.00	122.00
	24.00	-350.00	-622.00	-263.00	54.00	66.00	102.00
	30.00	-309.00	-561.00	-224.00	-2.00	66.00	-21.00
	33.00	-361.00	-440.00	-198.00	-60.00	60.00	-20.00
	31.00	-428.00	-257.00	-145.00	-72.00	38.00	-23.00
	28.00	-379.00	-127.00	-178.00	-53.00	27.00	-34.00
	25.00	-329.00	4.00	-240.00	-17.00	3.00	-23.00
	13.00	-256.00	28.00	-237.00	33.00	-22.00	18.00
	9.00	-134.00	160.00	-102.00	83.00	-25.00	33.00
	-3.00	12.00	215.00	11.00	143.00	-19.00	36.00
	-14.00	117.00	44.00	84.00	272.00	-26.00	45.00
	-16.00	231.00	-81.00	133.00	275.00	-33.00	45.00
	-14.00	365.00	-68.00	143.00	160.00	-34.00	25.00
	-10.00	393.00	-75.00	153.00	36.00	-30.00	17.00
	-12.00	309.00	-55.00	164.00	-43.00	-19.00	12.00
	-8.00	229.00	-50.00	120.00	-99.00	2.00	10.00
	-10.00	189.00	-25.00	49.00	-127.00	21.00	-24.00
	-7.00	136.00	17.00	-19.00	-146.00	32.00	-51.00
	4.00	97.00	40.00	-21.00	-158.00	20.00	-86.00
	-3.00	-2.00	59.00	-31.00	-144.00	20.00	-127.00
	-18.00	-97.00	112.00	-100.00	-114.00	21.00	-93.00
	-8.00	-88.00	173.00	-107.00	-103.00	8.00	-98.00
	13.00	-56.00	208.00	-18.00	-75.00	19.00	-78.00
	17.00	-22.00	119.00	-41.00	-61.00	34.00	6.00
	9.00	-42.00	-21.00	-125.00	-53.00	67.00	83.00
	12.00	-83.00	-164.00	-187.00	-33.00	63.00	123.00
	3.00	-62.00	-439.00	-206.00	-5.00	44.00	98.00
	0.00	-15.00	-528.00	-204.00	27.00	28.00	82.00
	7.00	-12.00	-378.00	-192.00	47.00	26.00	150.00
	19.00	4.00	-145.00	-169.00	37.00	18.00	103.00
	12.00	50.00	28.00	-138.00	0.00	9.00	18.00
	1.00	79.00	168.00	-98.00	-73.00	12.00	3.00
	-5.00	116.00	366.00	-21.00	-162.00	-4.00	-21.00
	-7.00	140.00	425.00	38.00	-242.00	-28.00	-40.00
	-18.00	133.00	356.00	85.00	-258.00	-28.00	-25.00
	-29.00	122.00	315.00	161.00	-212.00	-20.00	6.00
	-28.00	104.00	210.00	236.00	-108.00	-5.00	2.00
	-28.00	67.00	130.00	206.00	23.00	-1.00	16.00
	-24.00	48.00	122.00	73.00	129.00	-13.00	-30.00
	-13.00	43.00	209.00	17.00	270.00	-11.00	-62.00
	-4.00	24.00	336.00	-27.00	374.00	14.00	-63.00
	-9.00	-1.00	287.00	10.00	421.00	20.00	35.00
	-6.00	-32.00	285.00	84.00	446.00	3.00	114.00
	0.00	-73.00	183.00	119.00	437.00	-34.00	86.00
	-2.00	-133.00	133.00	186.00	403.00	-66.00	115.00
	-2.00	-162.00	86.00	230.00	367.00	-58.00	125.00
	0.00	-137.00	65.00	282.00	320.00	-33.00	75.00
	3.00	-98.00	-101.00	280.00	272.00	-25.00	10.00
	6.00	-42.00	-179.00	257.00	278.00	-17.00	-18.00
	4.00	-1.00	-287.00	48.00	237.00	8.00	-44.00
	-3.00	-1.00	-495.00	-248.00	57.00	35.00	-61.00
	-2.00	26.00	-544.00	-312.00	-138.00	37.00	-71.00
	2.00	78.00	-457.00	-255.00	-231.00	31.00	-57.00
	4.00	97.00	-308.00	-116.00	-264.00	30.00	-55.00
	3.00	93.00	-207.00	27.00	-282.00	25.00	-70.00
	2.00	62.00	-191.00	53.00	-284.00	17.00	-83.00
	2.00	0.00	-121.00	102.00	-267.00	13.00	-54.00
	8.00	-107.00	-14.00	294.00	-264.00	18.00	-13.00
	15.00	-204.00	85.00	399.00	-237.00	28.00	-8.00
	14.00	-248.00	64.00	330.00	-193.00	39.00	6.00
	8.00	-232.00	-19.00	151.00	-188.00	44.00	12.00
	10.00	-279.00	-59.00	-33.00	-210.00	39.00	11.00
	16.00	-278.00	33.00	-74.00	-201.00	37.00	-4.00
	17.00	-192.00	144.00	-50.00	-145.00	36.00	3.00
	12.00	-63.00	213.00	-110.00	-91.00	38.00	-4.00
	15.00	77.00	321.00	-230.00	-50.00	23.00	-51.00
	14.00	232.00	365.00	-410.00	-29.00	20.00	-56.00
	15.00	383.00	234.00	-482.00	-9.00	31.00	-36.00
	8.00	464.00	92.00	-392.00	20.00	27.00	-25.00
	-2.00	501.00	33.00	-179.00	57.00	9.00	-41.00
	-6.00	483.00	-132.00	-11.00	125.00	-12.00	-9.00
	-9.00	440.00	-253.00	134.00	193.00	-21.00	2.00
	-13.00	405.00	-176.00	271.00	222.00	-18.00	-7.00
	-15.00	321.00	-92.00	397.00	226.00	-20.00	-5.00
	-10.00	195.00	-195.00	421.00	192.00	-15.00	22.00
	-3.00	75.00	-342.00	366.00	107.00	-6.00	32.00
	10.00	-59.00	-255.00	250.00	44.00	5.00	19.00
	4.00	-165.00	-34.00	112.00	32.00	-10.00	35.00
	2.00	-283.00	198.00	33.00	41.00	-28.00	16.00
	10.00	-400.00	411.00	-28.00	41.00	-20.00	-15.00
	17.00	-450.00	476.00	-20.00	21.00	-4.00	-28.00
	13.00	-394.00	441.00	-54.00	14.00	-3.00	-4.00
	3.00	-262.00	476.00	-78.00	29.00	-3.00	7.00
	-4.00	-104.00	476.00	-123.00	31.00	-2.00	5.00
	-15.00	57.00	361.00	-117.00	9.00	-3.00	2.00
	-19.00	240.00	21.00	-69.00	-1.00	2.00	-1.00
	-14.00	356.00	-201.00	-31.00	-11.00	9.00	-11.00
	-12.00	397.00	-273.00	15.00	-15.00	8.00	-65.00
	-11.00	455.00	-190.00	78.00	-12.00	12.00	-117.00
	-7.00	484.00	-89.00	120.00	-21.00	29.00	-116.00
	-4.00	413.00	-100.00	68.00	-24.00	38.00	-29.00
	-6.00	281.00	-195.00	-65.00	-9.00	45.00	3.00
	-2.00	161.00	-309.00	-218.00	0.00	48.00	58.00
	4.00	46.00	-374.00	-245.00	4.00	47.00	129.00
	4.00	-67.00	-437.00	-251.00	10.00	41.00	163.00
	5.00	-130.00	-407.00	-220.00	10.00	38.00	189.00
	12.00	-142.00	-349.00	-138.00	16.00	22.00	155.00
	10.00	-178.00	-295.00	-107.00	25.00	-2.00	105.00
	-6.00	-268.00	-159.00	-105.00	23.00	-21.00	45.00
	-17.00	-284.00	76.00	-54.00	7.00	-18.00	5.00
	-19.00	-273.00	212.00	5.00	-67.00	-2.00	-11.00
	-20.00	-286.00	318.00	10.00	-138.00	-1.00	-5.00
	-29.00	-320.00	480.00	34.00	-116.00	-3.00	-13.00
	-32.00	-261.00	355.00	76.00	-103.00	-2.00	-54.00
	-35.00	-139.00	82.00	174.00	-83.00	-15.00	-152.00
	-32.00	4.00	57.00	271.00	-74.00	-13.00	-214.00
	-29.00	110.00	261.00	343.00	2.00	-8.00	-247.00
	-16.00	166.00	344.00	377.00	57.00	2.00	-230.00
	-15.00	205.00	297.00	293.00	127.00	19.00	-123.00
	-21.00	239.00	202.00	170.00	153.00	30.00	-44.00
	-19.00	224.00	102.00	85.00	144.00	28.00	56.00
	-12.00	181.00	59.00	59.00	166.00	28.00	164.00
	3.00	126.00	39.00	-9.00	190.00	37.00	195.00
	13.00	18.00	37.00	-149.00	177.00	34.00	154.00
	14.00	-85.00	36.00	-245.00	128.00	32.00	131.00
	18.00	-194.00	13.00	-219.00	72.00	17.00	96.00
	32.00	-274.00	-25.00	-204.00	22.00	23.00	67.00
	39.00	-241.00	-44.00	-196.00	73.00	13.00	52.00
	43.00	-150.00	-54.00	-187.00	90.00	3.00	99.00
	38.00	-32.00	-8.00	-90.00	-8.00	4.00	202.00
	29.00	76.00	49.00	67.00	-120.00	-2.00	215.00
	31.00	116.00	-48.00	119.00	-135.00	-12.00	141.00
	40.00	119.00	-106.00	105.00	-67.00	-25.00	12.00
	47.00	119.00	-133.00	89.00	-26.00	-24.00	-46.00
	41.00	95.00	-243.00	71.00	10.00	-34.00	-88.00
	44.00	83.00	-344.00	67.00	37.00	-32.00	-124.00
	40.00	62.00	-314.00	51.00	33.00	-32.00	-151.00
	31.00	50.00	-163.00	51.00	12.00	-33.00	-133.00
	24.00	8.00	-257.00	-99.00	-16.00	-18.00	-98.00
	19.00	-25.00	-451.00	-220.00	-26.00	3.00	-65.00
	28.00	-29.00	-487.00	-222.00	-26.00	29.00	-15.00
	40.00	-90.00	-319.00	-193.00	-33.00	47.00	0.00
	40.00	-200.00	-155.00	-155.00	-29.00	65.00	4.00
	41.00	-246.00	91.00	-73.00	-12.00	58.00	38.00
	37.00	-200.00	171.00	48.00	9.00	37.00	27.00
	26.00	-131.00	231.00	103.00	27.00	12.00	-9.00
	15.00	-27.00	241.00	43.00	35.00	6.00	-10.00
	10.00	132.00	143.00	43.00	29.00	10.00	-19.00
	-6.00	256.00	114.00	76.00	26.00	13.00	-16.00
	-17.00	374.00	113.00	119.00	28.00	16.00	21.00
	-25.00	372.00	12.00	211.00	9.00	15.00	32.00
	-20.00	311.00	-100.00	261.00	-4.00	20.00	-3.00
	-24.00	277.00	-155.00	259.00	-1.00	27.00	-20.00
	-26.00	225.00	-119.00	252.00	-1.00	16.00	-43.00
	-22.00	127.00	-1.00	267.00	-20.00	-4.00	-73.00
	-25.00	60.00	185.00	256.00	-32.00	-13.00	-74.00
	-28.00	40.00	309.00	209.00	-28.00	-16.00	-68.00
	-21.00	12.00	442.00	132.00	-12.00	-5.00	-76.00
	-12.00	1.00	674.00	94.00	18.00	24.00	-93.00
	6.00	-3.00	724.00	88.00	3.00	44.00	-94.00
	2.00	-29.00	654.00	60.00	-71.00	40.00	-104.00
	-1.00	-36.00	346.00	-41.00	35.00	23.00	-91.00
	1.00	-91.00	-188.00	-165.00	115.00	12.00	-67.00
	-2.00	-199.00	-598.00	-263.00	61.00	2.00	-8.00
	-7.00	-307.00	-567.00	-305.00	-48.00	-18.00	60.00
	-13.00	-319.00	-289.00	-264.00	-80.00	-27.00	121.00
	-23.00	-274.00	114.00	-117.00	-97.00	-17.00	140.00
	-31.00	-178.00	409.00	40.00	-118.00	-14.00	146.00
	-30.00	-48.00	399.00	105.00	-79.00	-15.00	141.00
	-24.00	57.00	377.00	106.00	-36.00	-26.00	100.00
	-23.00	85.00	316.00	130.00	-7.00	-18.00	65.00
	-24.00	85.00	143.00	93.00	49.00	-7.00	70.00
	-13.00	150.00	-86.00	74.00	111.00	1.00	96.00
	4.00	234.00	-272.00	-7.00	115.00	15.00	90.00
	-8.00	189.00	-324.00	-111.00	87.00	15.00	142.00
	-7.00	99.00	-272.00	-144.00	84.00	-7.00	49.00
	2.00	72.00	-199.00	-74.00	77.00	-12.00	-26.00
	6.00	42.00	-201.00	-126.00	87.00	-7.00	-25.00
	11.00	39.00	-278.00	-194.00	56.00	11.00	-34.00
	12.00	65.00	-317.00	-218.00	-5.00	25.00	-65.00
	4.00	74.00	-333.00	-235.00	-20.00	44.00	-128.00
	0.00	86.00	-385.00	-205.00	28.00	65.00	-151.00
	-4.00	83.00	-401.00	-165.00	-8.00	56.00	-158.00
	-9.00	52.00	-356.00	-130.00	-131.00	30.00	-136.00
	-6.00	4.00	-207.00	-99.00	-148.00	15.00	-54.00
	-1.00	-30.00	86.00	9.00	-111.00	11.00	-15.00
	1.00	-96.00	335.00	137.00	-72.00	29.00	-11.00
	8.00	-152.00	445.00	173.00	-35.00	36.00	30.00
	10.00	-160.00	385.00	98.00	8.00	29.00	50.00
	6.00	-152.00	222.00	23.00	77.00	21.00	44.00
	2.00	-98.00	130.00	-36.00	138.00	23.00	21.00
	3.00	-26.00	28.00	-59.00	178.00	10.00	13.00
	6.00	25.00	-51.00	-49.00	223.00	-3.00	-8.00
	5.00	30.00	-124.00	-82.00	251.00	1.00	-41.00
	2.00	58.00	-207.00	-49.00	236.00	-1.00	-37.00
	3.00	45.00	-214.00	8.00	195.00	-6.00	13.00
	12.00	-27.00	-181.00	82.00	165.00	4.00	53.00
	18.00	-122.00	-86.00	155.00	133.00	17.00	8.00
	10.00	-272.00	14.00	196.00	83.00	24.00	11.00
	0.00	-355.00	68.00	161.00	49.00	30.00	-2.00
	-3.00	-322.00	71.00	85.00	31.00	37.00	-20.00
	1.00	-236.00	105.00	95.00	19.00	21.00	-11.00
	-3.00	-120.00	116.00	126.00	-40.00	2.00	3.00
	-2.00	20.00	147.00	76.00	-141.00	-5.00	-5.00
	-5.00	153.00	95.00	63.00	-204.00	-18.00	-14.00
	-4.00	246.00	-251.00	-13.00	-187.00	-11.00	-21.00
	-10.00	259.00	-597.00	-229.00	-174.00	0.00	-20.00
	-16.00	191.00	-852.00	-350.00	-142.00	17.00	-1.00
	-9.00	175.00	-845.00	-392.00	-83.00	48.00	10.00
	6.00	200.00	-661.00	-331.00	-4.00	66.00	-26.00
	18.00	89.00	-367.00	-265.00	33.00	65.00	22.00
	19.00	-74.00	136.00	-217.00	103.00	50.00	61.00
	5.00	-132.00	712.00	-116.00	262.00	0.00	-20.00
	-2.00	-116.00	1191.00	115.00	390.00	-37.00	-49.00
	-8.00	-68.00	1355.00	360.00	313.00	-45.00	-22.00
	-14.00	31.00	1189.00	519.00	149.00	-47.00	30.00
	-18.00	163.00	857.00	507.00	-1.00	-65.00	64.00
	-11.00	292.00	321.00	390.00	-103.00	-72.00	85.00
	-3.00	367.00	15.00	320.00	-165.00	-53.00	118.00
	2.00	377.00	-239.00	283.00	-214.00	-56.00	105.00
	-5.00	413.00	-543.00	237.00	-231.00	-76.00	89.00
	-11.00	441.00	-497.00	232.00	-258.00	-73.00	21.00
	-14.00	441.00	-251.00	221.00	-254.00	-54.00	-57.00
	-18.00	391.00	46.00	250.00	-195.00	-15.00	-45.00
	-10.00	246.00	374.00	263.00	-150.00	7.00	29.00
	1.00	75.00	513.00	226.00	-110.00	15.00	11.00
	5.00	-95.00	464.00	145.00	-85.00	22.00	-43.00
	12.00	-195.00	429.00	41.00	-60.00	38.00	-80.00
	20.00	-266.00	361.00	-48.00	-25.00	50.00	-88.00
	26.00	-347.00	212.00	-98.00	-48.00	47.00	-90.00
	22.00	-359.00	24.00	-124.00	-65.00	38.00	-85.00
	27.00	-301.00	-136.00	-80.00	-49.00	39.00	-90.00
	24.00	-203.00	-248.00	-58.00	-36.00	41.00	-83.00
	19.00	-149.00	-345.00	-76.00	-22.00	34.00	0.00
	8.00	-81.00	-374.00	-197.00	-10.00	22.00	79.00
	5.00	-30.00	-498.00	-415.00	58.00	28.00	101.00
	4.00	28.00	-528.00	-627.00	123.00	45.00	148.00
	5.00	101.00	-593.00	-669.00	157.00	60.00	245.00
	-4.00	114.00	-763.00	-564.00	127.00	78.00	211.00
	0.00	30.00	-871.00	-393.00	75.00	80.00	90.00
	4.00	-71.00	-932.00	-221.00	119.00	63.00	11.00
	6.00	-151.00	-656.00	-5.00	173.00	31.00	-31.00
	-5.00	-180.00	-110.00	218.00	178.00	1.00	-79.00
	-21.00	-214.00	495.00	435.00	199.00	-10.00	-106.00
	-23.00	-165.00	570.00	590.00	247.00	-26.00	-70.00
	-30.00	-80.00	399.00	555.00	250.00	-31.00	-49.00
	-27.00	48.00	300.00	277.00	213.00	-11.00	-39.00
	-21.00	182.00	539.00	169.00	136.00	-15.00	-37.00
	-10.00	274.00	819.00	169.00	58.00	-16.00	-31.00
	1.00	313.00	1014.00	173.00	0.00	-19.00	-25.00
	0.00	267.00	941.00	184.00	-3.00	-11.00	6.00
	5.00	204.00	695.00	143.00	-5.00	-2.00	-24.00
	11.00	107.00	406.00	127.00	-68.00	5.00	-39.00
	14.00	23.00	162.00	133.00	-111.00	14.00	-60.00
	11.00	-75.00	-5.00	174.00	-85.00	37.00	-93.00
	9.00	-155.00	-222.00	70.00	-60.00	47.00	-62.00
	4.00	-156.00	-294.00	-80.00	-53.00	38.00	-85.00
	-2.00	-78.00	-407.00	-199.00	-44.00	34.00	-108.00
	4.00	-6.00	-543.00	-190.00	-22.00	28.00	-38.00
	5.00	49.00	-675.00	-175.00	6.00	20.00	88.00
	2.00	113.00	-674.00	-181.00	27.00	13.00	152.00
	-3.00	186.00	-535.00	-183.00	59.00	-10.00	84.00
	-5.00	266.00	-303.00	-172.00	86.00	-20.00	86.00
	-2.00	312.00	-147.00	-144.00	107.00	-11.00	94.00
	-4.00	303.00	45.00	-104.00	93.00	5.00	81.00
	-2.00	231.00	300.00	-52.00	75.00	26.00	36.00
	0.00	153.00	426.00	-28.00	36.00	26.00	7.00
	2.00	76.00	331.00	-16.00	9.00	20.00	7.00
	-4.00	9.00	183.00	-32.00	14.00	13.00	16.00
	-3.00	-70.00	47.00	-65.00	131.00	11.00	23.00
	5.00	-124.00	-56.00	-78.00	200.00	21.00	36.00
	8.00	-144.00	-145.00	-109.00	146.00	26.00	30.00
	16.00	-151.00	-125.00	-133.00	65.00	19.00	-1.00
	15.00	-153.00	-120.00	-145.00	-18.00	13.00	-8.00
	16.00	-158.00	-95.00	-125.00	-114.00	28.00	-28.00
	14.00	-152.00	-72.00	-104.00	-187.00	20.00	-34.00
	6.00	-166.00	-35.00	-61.00	-219.00	-2.00	-24.00
	1.00	-177.00	-31.00	-20.00	-210.00	-20.00	-33.00
	-4.00	-181.00	-52.00	-9.00	-196.00	-32.00	-162.00
	-1.00	-204.00	-131.00	-25.00	-170.00	-35.00	-154.00
	4.00	-210.00	-174.00	-22.00	-127.00	-18.00	-131.00
	9.00	-215.00	-198.00	-40.00	-84.00	-7.00	-120.00
	10.00	-258.00	-239.00	-30.00	-43.00	-2.00	-52.00
	7.00	-305.00	-224.00	39.00	-18.00	5.00	63.00
	8.00	-304.00	-188.00	65.00	-7.00	16.00	118.00
	9.00	-252.00	-197.00	26.00	7.00	21.00	137.00
	8.00	-151.00	-103.00	35.00	40.00	7.00	96.00
	9.00	-50.00	102.00	39.00	59.00	-8.00	71.00
	12.00	-17.00	316.00	52.00	53.00	0.00	47.00
	14.00	-50.00	208.00	58.00	47.00	4.00	31.00
