
	-4.00	-65.00	-234.00	26.00	121.00	48.00	-14.00
	-2.00	-45.00	-239.00	55.00	23.00	44.00	-30.00
	0.00	26.00	-175.00	80.00	-59.00	28.00	-40.00
	-6.00	76.00	-80.00	95.00	-126.00	-24.00	-44.00
	-13.00	132.00	-51.00	129.00	-142.00	-68.00	-42.00
	-9.00	178.00	24.00	73.00	-133.00	-26.00	-41.00
	-7.00	233.00	210.00	-21.00	-122.00	-16.00	-39.00
	0.00	235.00	269.00	-52.00	-95.00	-26.00	-39.00
	1.00	203.00	201.00	-52.00	-108.00	-12.00	-34.00
	0.00	145.00	153.00	-59.00	-48.00	2.00	-29.00
	3.00	70.00	143.00	-63.00	34.00	5.00	-22.00
	8.00	-9.00	149.00	-50.00	113.00	1.00	-6.00
	9.00	-141.00	180.00	8.00	153.00	-5.00	-12.00
	15.00	-243.00	150.00	21.00	155.00	1.00	-16.00
	17.00	-248.00	108.00	12.00	120.00	10.00	-36.00
	24.00	-127.00	97.00	-3.00	83.00	17.00	-54.00
	23.00	36.00	89.00	-16.00	75.00	20.00	-47.00
	16.00	95.00	122.00	-26.00	55.00	15.00	-50.00
	1.00	112.00	149.00	-43.00	38.00	17.00	-42.00
	-3.00	92.00	115.00	-57.00	25.00	25.00	-18.00
	5.00	61.00	92.00	-39.00	10.00	29.00	90.00
	8.00	22.00	-13.00	-19.00	-1.00	28.00	259.00
	16.00	-90.00	-70.00	12.00	-2.00	25.00	182.00
	12.00	-142.00	-11.00	31.00	0.00	15.00	62.00
	7.00	-125.00	76.00	-5.00	-8.00	4.00	10.00
	3.00	-76.00	128.00	-40.00	-24.00	6.00	-24.00
	-6.00	-53.00	137.00	-90.00	-3.00	13.00	-38.00
	-9.00	-32.00	155.00	-152.00	63.00	14.00	-31.00
	-17.00	-16.00	92.00	-143.00	89.00	7.00	-22.00
	-11.00	4.00	-4.00	-86.00	77.00	3.00	-21.00
	-13.00	-13.00	-112.00	-19.00	73.00	12.00	-42.00
	-9.00	-35.00	-176.00	37.00	62.00	20.00	-65.00
	-11.00	-20.00	-239.00	47.00	42.00	22.00	-76.00
	-25.00	38.00	-209.00	32.00	25.00	16.00	-74.00
	-34.00	53.00	-186.00	65.00	18.00	9.00	-89.00
	-29.00	78.00	-104.00	97.00	13.00	-7.00	-94.00
	-13.00	41.00	-16.00	118.00	116.00	-25.00	-33.00
	-3.00	5.00	-78.00	158.00	188.00	-25.00	31.00
	4.00	27.00	-123.00	171.00	125.00	-15.00	33.00
	15.00	-1.00	-97.00	157.00	79.00	-8.00	-19.00
	21.00	-46.00	-78.00	140.00	7.00	4.00	-27.00
	15.00	-45.00	-117.00	135.00	-57.00	6.00	8.00
	14.00	4.00	-141.00	127.00	-73.00	11.00	76.00
	20.00	112.00	-157.00	108.00	-93.00	12.00	52.00
	24.00	223.00	-177.00	56.00	-89.00	14.00	32.00
	15.00	223.00	-189.00	8.00	-84.00	18.00	41.00
	18.00	158.00	-187.00	-9.00	-115.00	16.00	55.00
	9.00	84.00	-169.00	-8.00	-103.00	16.00	61.00
	2.00	10.00	-101.00	-10.00	-76.00	20.00	76.00
	-1.00	-81.00	-12.00	-19.00	54.00	21.00	122.00
	1.00	-145.00	117.00	-61.00	92.00	18.00	137.00
	-3.00	-150.00	205.00	-76.00	129.00	21.00	107.00
	-4.00	-137.00	244.00	-76.00	91.00	18.00	42.00
	-9.00	-92.00	173.00	-73.00	24.00	15.00	-13.00
	-3.00	-42.00	74.00	-58.00	-27.00	14.00	-49.00
	-2.00	0.00	71.00	-38.00	-35.00	16.00	-50.00
	-5.00	32.00	28.00	-6.00	-47.00	6.00	-15.00
	-6.00	39.00	-5.00	7.00	-57.00	4.00	-18.00
	-6.00	51.00	18.00	21.00	-57.00	1.00	-54.00
	3.00	3.00	78.00	65.00	-71.00	0.00	-88.00
	8.00	-25.00	231.00	60.00	-81.00	0.00	-107.00
	8.00	-37.00	344.00	42.00	-63.00	-18.00	-118.00
	9.00	-33.00	311.00	27.00	-22.00	-21.00	-119.00
	3.00	35.00	204.00	-5.00	0.00	-3.00	-62.00
	-6.00	74.00	76.00	-17.00	9.00	10.00	-13.00
	-12.00	107.00	-57.00	-9.00	6.00	12.00	6.00
	-14.00	115.00	-87.00	-8.00	3.00	13.00	-6.00
	-7.00	111.00	-85.00	-14.00	1.00	18.00	22.00
	-6.00	64.00	-147.00	-19.00	2.00	25.00	57.00
	-13.00	26.00	-164.00	-18.00	18.00	26.00	59.00
	-12.00	-8.00	-126.00	-22.00	25.00	23.00	20.00
	-11.00	-4.00	-34.00	-38.00	35.00	22.00	27.00
	-12.00	14.00	39.00	-39.00	40.00	15.00	30.00
	-10.00	66.00	67.00	-22.00	51.00	8.00	-9.00
	-3.00	108.00	76.00	9.00	55.00	7.00	-55.00
	-13.00	143.00	78.00	13.00	54.00	9.00	-39.00
	-14.00	110.00	-39.00	34.00	59.00	12.00	29.00
	-11.00	74.00	-168.00	69.00	57.00	18.00	-7.00
	-3.00	64.00	-257.00	93.00	61.00	17.00	-8.00
	5.00	43.00	-285.00	109.00	76.00	19.00	26.00
	12.00	5.00	-300.00	81.00	70.00	22.00	66.00
	9.00	-12.00	-226.00	21.00	99.00	23.00	37.00
	6.00	-34.00	-91.00	-40.00	99.00	18.00	12.00
	13.00	-70.00	72.00	-62.00	87.00	1.00	14.00
	23.00	-66.00	238.00	-77.00	72.00	-10.00	-52.00
	17.00	-57.00	330.00	-49.00	68.00	-19.00	-85.00
	15.00	-71.00	379.00	-5.00	60.00	-24.00	-43.00
	21.00	-104.00	326.00	1.00	85.00	-22.00	-26.00
	24.00	-73.00	190.00	-10.00	200.00	-10.00	38.00
	28.00	20.00	146.00	-53.00	152.00	-6.00	154.00
	21.00	114.00	152.00	-122.00	98.00	-6.00	129.00
	11.00	165.00	106.00	-140.00	45.00	-9.00	32.00
	18.00	156.00	68.00	-114.00	-2.00	-1.00	-4.00
	11.00	136.00	60.00	-85.00	-70.00	8.00	-33.00
	-1.00	97.00	67.00	-48.00	-123.00	16.00	-37.00
	2.00	22.00	49.00	-6.00	-166.00	18.00	-40.00
	6.00	-70.00	-80.00	64.00	-172.00	17.00	-55.00
	10.00	-100.00	-154.00	143.00	-61.00	20.00	-83.00
	11.00	-114.00	-185.00	177.00	-27.00	21.00	-82.00
	12.00	-80.00	-166.00	150.00	-52.00	16.00	-44.00
	3.00	-43.00	-167.00	102.00	-99.00	12.00	-79.00
	1.00	-42.00	-219.00	55.00	-144.00	23.00	-100.00
	1.00	-45.00	-313.00	25.00	-108.00	38.00	-39.00
	-4.00	-23.00	-389.00	34.00	-61.00	32.00	39.00
	-5.00	-11.00	-382.00	41.00	-63.00	14.00	80.00
	-12.00	-20.00	-313.00	28.00	-92.00	14.00	175.00
	-9.00	9.00	-213.00	27.00	-78.00	11.00	195.00
	-8.00	96.00	-41.00	18.00	-56.00	2.00	87.00
	-6.00	128.00	159.00	2.00	-20.00	-3.00	43.00
	-2.00	119.00	332.00	-21.00	2.00	2.00	-2.00
	4.00	69.00	391.00	-31.00	5.00	2.00	22.00
	18.00	-4.00	388.00	-15.00	7.00	-4.00	56.00
	13.00	-66.00	387.00	-12.00	26.00	-7.00	14.00
	8.00	-115.00	287.00	-29.00	41.00	-3.00	-22.00
	-5.00	-164.00	107.00	-28.00	77.00	4.00	-32.00
	-20.00	-145.00	32.00	-26.00	100.00	6.00	-38.00
	-14.00	-116.00	31.00	-29.00	95.00	8.00	-58.00
	-1.00	-3.00	137.00	-57.00	92.00	-7.00	-120.00
	15.00	131.00	188.00	-40.00	93.00	-20.00	-136.00
	20.00	226.00	88.00	-17.00	80.00	-5.00	-129.00
	22.00	232.00	8.00	8.00	60.00	22.00	-110.00
	21.00	176.00	-39.00	14.00	38.00	41.00	-62.00
	20.00	108.00	-143.00	19.00	30.00	45.00	9.00
	19.00	-12.00	-162.00	19.00	24.00	43.00	111.00
	17.00	-137.00	-165.00	23.00	23.00	35.00	178.00
	15.00	-195.00	-168.00	38.00	19.00	-7.00	164.00
	14.00	-200.00	-180.00	68.00	40.00	-54.00	98.00
	11.00	-109.00	-110.00	90.00	52.00	-20.00	49.00
	7.00	-9.00	-13.00	62.00	51.00	4.00	10.00
	1.00	74.00	-7.00	38.00	66.00	10.00	0.00
	-5.00	169.00	-37.00	38.00	69.00	18.00	-22.00
	0.00	167.00	27.00	17.00	71.00	19.00	-34.00
	-3.00	152.00	105.00	29.00	106.00	6.00	-55.00
	0.00	153.00	178.00	16.00	114.00	7.00	-48.00
	1.00	141.00	186.00	7.00	89.00	8.00	-77.00
	5.00	87.00	121.00	46.00	73.00	9.00	-52.00
	13.00	27.00	79.00	63.00	28.00	13.00	-10.00
	4.00	-37.00	78.00	46.00	-12.00	17.00	22.00
	3.00	-68.00	50.00	42.00	-41.00	11.00	116.00
	9.00	-45.00	-66.00	37.00	-55.00	7.00	62.00
	2.00	-36.00	-134.00	29.00	-72.00	7.00	0.00
	-4.00	-59.00	-151.00	-3.00	-81.00	10.00	-36.00
	-9.00	-62.00	-206.00	-17.00	-97.00	15.00	-47.00
	-6.00	-6.00	-297.00	-3.00	-36.00	21.00	-42.00
	2.00	135.00	-321.00	-2.00	12.00	17.00	-42.00
	-2.00	205.00	-261.00	15.00	30.00	13.00	-42.00
	-18.00	196.00	-151.00	19.00	31.00	3.00	-51.00
	-31.00	117.00	37.00	-45.00	70.00	6.00	-35.00
	-34.00	22.00	190.00	-88.00	147.00	18.00	-5.00
	-35.00	-51.00	255.00	-65.00	137.00	15.00	-1.00
	-39.00	-128.00	302.00	-65.00	295.00	8.00	-6.00
	-48.00	-153.00	193.00	-60.00	251.00	8.00	-28.00
	-54.00	-146.00	-50.00	-21.00	120.00	15.00	-33.00
	-58.00	-80.00	-203.00	72.00	-25.00	23.00	-15.00
	-47.00	-40.00	-265.00	130.00	-155.00	27.00	12.00
	-32.00	-31.00	-243.00	134.00	-248.00	29.00	16.00
	-29.00	-21.00	-103.00	92.00	-303.00	30.00	36.00
	-29.00	13.00	147.00	1.00	-303.00	14.00	59.00
	-30.00	8.00	311.00	-28.00	-259.00	-14.00	12.00
	-24.00	-32.00	334.00	-35.00	-240.00	-20.00	-34.00
	-13.00	-34.00	280.00	-74.00	-222.00	-15.00	-55.00
	-6.00	-20.00	181.00	-90.00	-183.00	-8.00	-31.00
	3.00	-33.00	105.00	-68.00	-124.00	-8.00	-21.00
	-5.00	-22.00	-31.00	10.00	-36.00	0.00	-26.00
	-4.00	-12.00	-88.00	48.00	61.00	6.00	75.00
	5.00	38.00	-62.00	33.00	129.00	10.00	203.00
	7.00	86.00	-7.00	4.00	148.00	-2.00	256.00
	12.00	107.00	9.00	13.00	160.00	-4.00	158.00
	10.00	108.00	7.00	-32.00	171.00	-4.00	44.00
	11.00	95.00	0.00	-76.00	181.00	-1.00	-22.00
	9.00	98.00	7.00	-68.00	180.00	-1.00	-48.00
	4.00	138.00	-14.00	-15.00	154.00	-1.00	-66.00
	5.00	98.00	-8.00	5.00	100.00	6.00	-2.00
	10.00	54.00	0.00	23.00	60.00	10.00	42.00
	13.00	2.00	-47.00	60.00	39.00	15.00	33.00
	13.00	-11.00	-64.00	45.00	30.00	17.00	31.00
	18.00	-21.00	-132.00	74.00	10.00	23.00	37.00
	17.00	-36.00	-162.00	98.00	34.00	28.00	-27.00
	18.00	-15.00	-167.00	120.00	50.00	27.00	-34.00
	16.00	-21.00	-59.00	79.00	45.00	23.00	-12.00
	8.00	7.00	15.00	30.00	53.00	22.00	-1.00
	-1.00	123.00	15.00	-5.00	67.00	21.00	-20.00
	1.00	211.00	-78.00	-24.00	52.00	16.00	-55.00
	4.00	225.00	-106.00	-25.00	21.00	7.00	-63.00
	4.00	165.00	-106.00	-14.00	-24.00	2.00	-54.00
	4.00	87.00	-48.00	-18.00	-24.00	3.00	-35.00
	0.00	4.00	-43.00	-22.00	-48.00	4.00	-35.00
	3.00	-66.00	-86.00	-25.00	-90.00	13.00	-26.00
	6.00	-97.00	25.00	-43.00	-66.00	14.00	-20.00
	9.00	-101.00	225.00	-66.00	-42.00	10.00	-65.00
	15.00	-104.00	297.00	-64.00	-39.00	5.00	-70.00
	29.00	-66.00	305.00	-70.00	-40.00	5.00	-63.00
	26.00	-53.00	294.00	-77.00	-28.00	5.00	-56.00
	20.00	-73.00	288.00	-45.00	-8.00	-4.00	-39.00
	37.00	-37.00	204.00	-5.00	7.00	-2.00	-39.00
	37.00	-49.00	50.00	10.00	8.00	6.00	-47.00
	30.00	-49.00	-13.00	5.00	4.00	8.00	11.00
	14.00	2.00	-39.00	16.00	8.00	10.00	51.00
	13.00	-21.00	-65.00	41.00	22.00	11.00	31.00
	9.00	-14.00	-77.00	66.00	17.00	15.00	37.00
	7.00	-26.00	-170.00	105.00	20.00	21.00	127.00
	2.00	-71.00	-155.00	116.00	18.00	21.00	59.00
	2.00	-117.00	-80.00	95.00	46.00	21.00	-4.00
	-1.00	-146.00	-42.00	67.00	68.00	7.00	-5.00
	-8.00	-140.00	-73.00	35.00	239.00	5.00	15.00
	-10.00	-60.00	-85.00	17.00	405.00	10.00	15.00
	-9.00	-13.00	14.00	15.00	338.00	5.00	-2.00
	-1.00	34.00	134.00	11.00	271.00	-9.00	24.00
	10.00	50.00	186.00	-2.00	162.00	-17.00	69.00
	12.00	69.00	144.00	-9.00	-7.00	-9.00	103.00
	21.00	95.00	41.00	5.00	-168.00	5.00	99.00
	21.00	115.00	-32.00	17.00	-278.00	17.00	33.00
	14.00	71.00	-52.00	12.00	-353.00	23.00	-7.00
	9.00	29.00	-55.00	4.00	-372.00	24.00	-26.00
	7.00	38.00	-66.00	0.00	-375.00	18.00	-45.00
	10.00	54.00	-99.00	10.00	-325.00	15.00	-63.00
	15.00	82.00	-92.00	5.00	-256.00	12.00	-25.00
	10.00	93.00	-120.00	5.00	-177.00	15.00	25.00
	18.00	76.00	-198.00	62.00	-83.00	24.00	8.00
	17.00	37.00	-244.00	148.00	-20.00	27.00	-1.00
	15.00	6.00	-185.00	144.00	42.00	26.00	-14.00
	16.00	-8.00	-102.00	95.00	120.00	16.00	-20.00
	8.00	15.00	-33.00	28.00	206.00	12.00	-19.00
	2.00	32.00	16.00	-39.00	234.00	12.00	18.00
	1.00	44.00	40.00	-84.00	233.00	7.00	20.00
	-5.00	72.00	42.00	-135.00	223.00	0.00	13.00
	-11.00	101.00	47.00	-184.00	231.00	-9.00	-16.00
	-9.00	137.00	102.00	-173.00	236.00	-29.00	-21.00
	-4.00	138.00	89.00	-77.00	200.00	-33.00	-14.00
	1.00	137.00	-9.00	25.00	146.00	-15.00	7.00
	6.00	121.00	-26.00	75.00	92.00	1.00	23.00
	12.00	47.00	46.00	82.00	42.00	1.00	-59.00
	6.00	-3.00	66.00	74.00	-51.00	5.00	-82.00
	-5.00	-27.00	82.00	32.00	-72.00	17.00	-100.00
	-12.00	-68.00	118.00	-26.00	-49.00	17.00	-85.00
	-12.00	-98.00	180.00	-74.00	-8.00	5.00	-55.00
	-12.00	-90.00	220.00	-83.00	147.00	-6.00	-18.00
	-13.00	-54.00	168.00	-58.00	105.00	-6.00	12.00
	-12.00	-20.00	102.00	-34.00	45.00	0.00	29.00
	-17.00	26.00	107.00	-38.00	6.00	9.00	92.00
	-8.00	78.00	40.00	-43.00	-21.00	13.00	188.00
	-3.00	102.00	-95.00	-13.00	-50.00	15.00	195.00
	-1.00	102.00	-262.00	34.00	-61.00	15.00	100.00
	-5.00	62.00	-308.00	40.00	-116.00	11.00	23.00
	-4.00	38.00	-217.00	51.00	-136.00	20.00	2.00
	-4.00	100.00	-174.00	73.00	-155.00	24.00	-7.00
	-23.00	102.00	-154.00	102.00	-154.00	17.00	-10.00
	-29.00	5.00	-124.00	125.00	-149.00	7.00	-12.00
	-14.00	-94.00	-1.00	124.00	-137.00	4.00	-11.00
	1.00	-132.00	113.00	101.00	-102.00	10.00	-11.00
	0.00	-123.00	174.00	97.00	-33.00	14.00	-9.00
	0.00	-147.00	205.00	62.00	47.00	20.00	-6.00
	-1.00	-179.00	288.00	-11.00	138.00	15.00	-15.00
	6.00	-185.00	313.00	-62.00	133.00	3.00	-18.00
	7.00	-108.00	180.00	-66.00	143.00	3.00	-18.00
	2.00	-3.00	68.00	-71.00	112.00	5.00	-20.00
	3.00	132.00	31.00	-94.00	60.00	8.00	-28.00
	3.00	201.00	139.00	-125.00	9.00	9.00	-47.00
	3.00	205.00	150.00	-58.00	-22.00	-3.00	-84.00
	-1.00	169.00	28.00	30.00	-63.00	-4.00	-78.00
	-8.00	72.00	-88.00	70.00	-95.00	12.00	-87.00
	-3.00	-11.00	-108.00	59.00	-88.00	22.00	-75.00
	-5.00	-45.00	-70.00	37.00	-56.00	26.00	-36.00
	-2.00	-54.00	-36.00	20.00	34.00	23.00	46.00
	2.00	-92.00	40.00	4.00	87.00	10.00	143.00
	6.00	-94.00	108.00	-30.00	94.00	7.00	133.00
	13.00	-59.00	81.00	-45.00	108.00	9.00	77.00
	19.00	-9.00	60.00	-33.00	108.00	2.00	21.00
	16.00	146.00	21.00	-11.00	92.00	1.00	0.00
	-6.00	237.00	-19.00	4.00	122.00	7.00	20.00
	-6.00	230.00	-96.00	50.00	96.00	14.00	49.00
	2.00	177.00	-159.00	87.00	49.00	17.00	-7.00
	-2.00	75.00	-157.00	112.00	-5.00	16.00	-101.00
	-1.00	-50.00	-132.00	62.00	-48.00	13.00	-106.00
	-1.00	-193.00	-191.00	-21.00	-9.00	17.00	-86.00
	-12.00	-306.00	-224.00	-44.00	44.00	18.00	-40.00
	-27.00	-351.00	-204.00	-45.00	93.00	8.00	4.00
	-27.00	-267.00	-73.00	-79.00	107.00	5.00	80.00
	-24.00	-133.00	1.00	-65.00	93.00	-6.00	94.00
	-17.00	1.00	69.00	3.00	69.00	-9.00	120.00
	-7.00	95.00	134.00	44.00	39.00	-4.00	114.00
	2.00	128.00	101.00	37.00	-3.00	-1.00	61.00
	10.00	130.00	-88.00	49.00	1.00	1.00	18.00
	25.00	99.00	-151.00	46.00	-6.00	9.00	-13.00
	21.00	59.00	-182.00	48.00	-38.00	14.00	-22.00
	12.00	31.00	-123.00	28.00	-59.00	15.00	-14.00
	12.00	-23.00	-55.00	-31.00	-69.00	0.00	-63.00
	19.00	-42.00	27.00	-41.00	-110.00	-14.00	-42.00
	13.00	-46.00	68.00	10.00	-135.00	-12.00	59.00
	3.00	-27.00	90.00	74.00	-96.00	-2.00	59.00
	5.00	15.00	139.00	68.00	-33.00	14.00	-16.00
	4.00	26.00	37.00	36.00	15.00	21.00	-42.00
	14.00	76.00	-56.00	24.00	34.00	22.00	5.00
	18.00	189.00	-130.00	34.00	48.00	23.00	133.00
	20.00	224.00	0.00	7.00	66.00	22.00	79.00
	24.00	205.00	47.00	5.00	73.00	7.00	-16.00
	24.00	177.00	84.00	26.00	67.00	7.00	-54.00
	17.00	125.00	132.00	19.00	28.00	13.00	-68.00
	19.00	79.00	157.00	-19.00	0.00	6.00	-85.00
	14.00	0.00	129.00	48.00	170.00	-3.00	-120.00
	11.00	-87.00	107.00	86.00	274.00	-1.00	-102.00
	0.00	-102.00	81.00	77.00	288.00	-2.00	-77.00
	-6.00	-34.00	25.00	69.00	218.00	0.00	27.00
	-9.00	56.00	62.00	40.00	145.00	4.00	67.00
	-6.00	152.00	93.00	-3.00	51.00	1.00	9.00
	0.00	179.00	20.00	-17.00	-41.00	-7.00	-18.00
	3.00	148.00	-100.00	-27.00	-126.00	-3.00	-12.00
	-2.00	98.00	-61.00	-23.00	-194.00	4.00	-27.00
	-8.00	65.00	-6.00	-16.00	-237.00	7.00	-50.00
	-6.00	-28.00	39.00	-21.00	-263.00	10.00	0.00
	-12.00	-142.00	58.00	-18.00	-249.00	12.00	44.00
	-8.00	-204.00	37.00	-6.00	-170.00	13.00	49.00
	-1.00	-222.00	43.00	-22.00	-78.00	14.00	39.00
	0.00	-137.00	46.00	-45.00	-22.00	9.00	62.00
	4.00	-3.00	-3.00	-58.00	0.00	9.00	83.00
	8.00	85.00	-76.00	-22.00	-11.00	6.00	102.00
	11.00	99.00	-132.00	23.00	-23.00	10.00	98.00
	5.00	78.00	-68.00	39.00	-1.00	16.00	64.00
	3.00	46.00	-6.00	37.00	34.00	24.00	9.00
	-3.00	-9.00	-63.00	35.00	7.00	29.00	-15.00
	-16.00	-96.00	-66.00	16.00	-44.00	30.00	7.00
	-16.00	-166.00	-31.00	-9.00	-108.00	23.00	17.00
	-15.00	-190.00	17.00	-36.00	-80.00	24.00	24.00
	-8.00	-174.00	50.00	-56.00	11.00	26.00	7.00
	-8.00	-106.00	60.00	-66.00	89.00	12.00	-28.00
	-4.00	-21.00	61.00	-46.00	135.00	3.00	-48.00
	-2.00	27.00	38.00	-8.00	188.00	0.00	-43.00
	-1.00	83.00	20.00	1.00	191.00	2.00	-65.00
	1.00	95.00	-36.00	-6.00	164.00	3.00	-91.00
	0.00	87.00	-119.00	-9.00	122.00	6.00	-83.00
	5.00	59.00	-124.00	-12.00	91.00	5.00	-55.00
	12.00	24.00	-71.00	-25.00	83.00	5.00	-5.00
	8.00	56.00	-66.00	-24.00	60.00	6.00	19.00
	-4.00	60.00	-137.00	-18.00	28.00	15.00	86.00
	-6.00	48.00	-267.00	2.00	-21.00	20.00	134.00
	-7.00	80.00	-306.00	9.00	-55.00	28.00	-2.00
	-12.00	101.00	-243.00	8.00	-71.00	34.00	-40.00
	-6.00	97.00	-110.00	3.00	-94.00	31.00	-53.00
	-9.00	41.00	19.00	29.00	-71.00	22.00	-77.00
	-12.00	39.00	103.00	62.00	-39.00	22.00	-18.00
	-3.00	78.00	237.00	57.00	-9.00	14.00	15.00
	3.00	109.00	381.00	50.00	193.00	-20.00	29.00
	4.00	94.00	378.00	26.00	294.00	-26.00	44.00
	5.00	74.00	296.00	36.00	208.00	-23.00	41.00
	13.00	47.00	192.00	51.00	139.00	-13.00	24.00
	23.00	46.00	123.00	89.00	81.00	-4.00	32.00
	15.00	35.00	153.00	31.00	28.00	-4.00	-8.00
	8.00	36.00	245.00	-55.00	-28.00	-1.00	-37.00
	0.00	44.00	203.00	-110.00	-97.00	4.00	-25.00
	0.00	62.00	164.00	-162.00	-136.00	6.00	-10.00
	2.00	31.00	63.00	-184.00	-145.00	4.00	-32.00
	-4.00	10.00	-48.00	-154.00	-23.00	1.00	-35.00
	-10.00	-6.00	-103.00	-109.00	47.00	4.00	-26.00
	-3.00	-1.00	-112.00	-38.00	86.00	5.00	27.00
	2.00	-4.00	-114.00	69.00	94.00	9.00	23.00
	6.00	-43.00	-109.00	170.00	97.00	-2.00	-2.00
	-1.00	-39.00	-164.00	235.00	41.00	1.00	33.00
	15.00	-50.00	-215.00	241.00	-44.00	4.00	68.00
	6.00	-63.00	-112.00	206.00	-122.00	2.00	148.00
	7.00	-71.00	3.00	167.00	-166.00	-5.00	166.00
	3.00	-84.00	33.00	121.00	-167.00	-3.00	111.00
	-6.00	-111.00	25.00	91.00	-154.00	0.00	13.00
	-9.00	-126.00	5.00	40.00	-134.00	5.00	-64.00
	-2.00	-124.00	5.00	-38.00	-43.00	17.00	-98.00
	-1.00	-103.00	68.00	-80.00	28.00	14.00	-73.00
	-1.00	-57.00	32.00	-75.00	69.00	10.00	-52.00
	-8.00	-15.00	-16.00	-59.00	91.00	9.00	13.00
	-8.00	3.00	-35.00	-37.00	86.00	11.00	68.00
	-3.00	9.00	-34.00	-6.00	89.00	18.00	11.00
	-13.00	47.00	-2.00	26.00	53.00	25.00	-27.00
	-15.00	75.00	0.00	52.00	4.00	26.00	-41.00
	-32.00	80.00	-21.00	62.00	-13.00	31.00	-21.00
	-29.00	89.00	-71.00	84.00	15.00	28.00	-2.00
	9.00	155.00	-149.00	114.00	5.00	25.00	-4.00
	22.00	217.00	-153.00	60.00	-16.00	27.00	-13.00
	13.00	214.00	-141.00	-17.00	-25.00	33.00	-18.00
	14.00	156.00	-105.00	-47.00	-3.00	35.00	-60.00
	21.00	102.00	-155.00	-36.00	16.00	25.00	-48.00
	23.00	34.00	-192.00	3.00	32.00	11.00	-45.00
	15.00	-28.00	-146.00	7.00	29.00	9.00	-51.00
	1.00	-71.00	-134.00	2.00	24.00	12.00	8.00
	1.00	-97.00	-74.00	8.00	19.00	4.00	55.00
	8.00	-91.00	-16.00	7.00	17.00	-2.00	41.00
	11.00	-63.00	-56.00	39.00	10.00	-2.00	-13.00
	14.00	18.00	7.00	21.00	4.00	0.00	-11.00
	11.00	57.00	177.00	-23.00	-3.00	-7.00	16.00
	1.00	85.00	202.00	-39.00	0.00	-5.00	75.00
	-9.00	82.00	125.00	-20.00	17.00	6.00	66.00
	-7.00	72.00	103.00	-24.00	44.00	15.00	33.00
	3.00	30.00	128.00	-53.00	60.00	17.00	30.00
	3.00	29.00	142.00	-69.00	76.00	14.00	-10.00
	1.00	27.00	156.00	-85.00	91.00	6.00	-29.00
	0.00	34.00	153.00	-72.00	92.00	-2.00	-43.00
	-1.00	46.00	151.00	-80.00	76.00	2.00	-55.00
	-4.00	34.00	104.00	-84.00	65.00	-5.00	-65.00
	3.00	10.00	67.00	-55.00	45.00	-16.00	-21.00
	10.00	-6.00	-1.00	-13.00	16.00	-16.00	80.00
	14.00	-16.00	-27.00	11.00	6.00	-10.00	30.00
	19.00	-56.00	-25.00	37.00	16.00	-2.00	3.00
	16.00	-102.00	42.00	61.00	21.00	6.00	-5.00
	22.00	-84.00	122.00	55.00	38.00	8.00	1.00
	22.00	-2.00	170.00	58.00	34.00	6.00	22.00
	19.00	80.00	170.00	77.00	23.00	2.00	0.00
	15.00	120.00	120.00	81.00	44.00	1.00	-8.00
	12.00	99.00	-11.00	91.00	49.00	3.00	-10.00
	5.00	89.00	-105.00	85.00	62.00	6.00	-14.00
	11.00	10.00	-140.00	62.00	59.00	16.00	12.00
	4.00	-88.00	-158.00	51.00	50.00	20.00	57.00
	0.00	-181.00	-159.00	39.00	31.00	23.00	49.00
	-7.00	-255.00	-166.00	2.00	77.00	19.00	8.00
	-9.00	-246.00	-25.00	-72.00	105.00	20.00	-10.00
	-2.00	-159.00	209.00	-146.00	60.00	10.00	-18.00
	3.00	-48.00	322.00	-103.00	23.00	0.00	-22.00
	-7.00	50.00	270.00	-34.00	-71.00	-3.00	-33.00
	-10.00	130.00	162.00	6.00	-211.00	1.00	-36.00
	-17.00	176.00	103.00	-15.00	-297.00	19.00	-39.00
	-11.00	157.00	20.00	-3.00	-274.00	39.00	-33.00
	-5.00	105.00	-87.00	11.00	-210.00	32.00	5.00
	-13.00	41.00	-101.00	-6.00	-155.00	22.00	41.00
	-6.00	-34.00	-181.00	10.00	-112.00	21.00	61.00
	-3.00	-78.00	-285.00	87.00	-62.00	23.00	35.00
	1.00	-63.00	-228.00	119.00	-22.00	21.00	11.00
	-1.00	-8.00	-214.00	119.00	6.00	21.00	-13.00
	-3.00	43.00	-205.00	111.00	65.00	15.00	-93.00
	-7.00	171.00	-123.00	82.00	250.00	3.00	-126.00
	-8.00	343.00	-77.00	20.00	242.00	-4.00	-112.00
	-9.00	374.00	-101.00	22.00	213.00	-12.00	-84.00
	-4.00	278.00	-114.00	36.00	151.00	-13.00	-36.00
	1.00	119.00	-29.00	3.00	74.00	-2.00	71.00
	7.00	-28.00	73.00	-29.00	13.00	0.00	54.00
	6.00	-186.00	176.00	-42.00	-4.00	-4.00	66.00
	2.00	-312.00	193.00	-45.00	-49.00	-3.00	89.00
	2.00	-414.00	244.00	-65.00	-69.00	-2.00	64.00
	1.00	-416.00	278.00	-74.00	-90.00	-2.00	35.00
	0.00	-294.00	191.00	-47.00	-91.00	-4.00	55.00
	2.00	-124.00	64.00	-24.00	-42.00	3.00	34.00
	4.00	21.00	-35.00	-19.00	-7.00	6.00	-1.00
	8.00	108.00	-146.00	-3.00	24.00	4.00	-14.00
	13.00	192.00	-236.00	16.00	57.00	5.00	-8.00
	8.00	249.00	-258.00	12.00	67.00	8.00	-8.00
	4.00	273.00	-255.00	14.00	38.00	7.00	-13.00
	3.00	261.00	-237.00	39.00	67.00	10.00	-59.00
	-5.00	220.00	-248.00	85.00	89.00	14.00	-41.00
	-7.00	174.00	-193.00	98.00	62.00	16.00	17.00
	-11.00	135.00	-76.00	97.00	32.00	17.00	42.00
	-17.00	107.00	-24.00	108.00	23.00	22.00	16.00
	-14.00	52.00	-13.00	104.00	44.00	17.00	18.00
	-20.00	5.00	85.00	43.00	50.00	22.00	5.00
	-23.00	-2.00	114.00	-7.00	21.00	26.00	-22.00
	-11.00	-32.00	131.00	-65.00	2.00	19.00	-36.00
	-8.00	-56.00	170.00	-91.00	-8.00	-4.00	-48.00
	-5.00	-77.00	159.00	-113.00	-41.00	0.00	-39.00
	-12.00	-111.00	149.00	-115.00	-81.00	11.00	-29.00
	-5.00	-162.00	244.00	-96.00	-81.00	9.00	-6.00
	3.00	-182.00	272.00	-72.00	-56.00	7.00	66.00
	5.00	-182.00	309.00	-76.00	54.00	8.00	74.00
	13.00	-157.00	370.00	-64.00	84.00	16.00	-6.00
	13.00	-102.00	430.00	-52.00	153.00	23.00	-26.00
	16.00	-9.00	312.00	-4.00	161.00	8.00	-48.00
	13.00	141.00	81.00	55.00	121.00	6.00	-24.00
	15.00	274.00	-88.00	103.00	112.00	14.00	-19.00
	11.00	309.00	-240.00	142.00	165.00	22.00	-6.00
	9.00	257.00	-373.00	180.00	35.00	22.00	68.00
	16.00	189.00	-410.00	183.00	-104.00	18.00	67.00
	22.00	53.00	-311.00	158.00	-202.00	15.00	51.00
	16.00	-107.00	-187.00	97.00	-240.00	17.00	8.00
	17.00	-238.00	-139.00	7.00	-246.00	17.00	-15.00
	10.00	-316.00	-121.00	-76.00	-244.00	14.00	-20.00
	3.00	-248.00	-52.00	-145.00	-187.00	11.00	-31.00
	-10.00	-132.00	5.00	-181.00	-117.00	-4.00	-53.00
	-15.00	-77.00	31.00	-146.00	-80.00	-13.00	-16.00
	-1.00	-45.00	13.00	-57.00	-38.00	-8.00	19.00
	2.00	16.00	51.00	16.00	2.00	-10.00	18.00
	-6.00	94.00	1.00	46.00	41.00	-7.00	-2.00
	5.00	182.00	0.00	28.00	77.00	2.00	7.00
	6.00	255.00	44.00	-25.00	106.00	6.00	10.00
	12.00	254.00	81.00	-83.00	132.00	7.00	33.00
	9.00	224.00	73.00	-115.00	126.00	6.00	-10.00
	5.00	159.00	-12.00	-82.00	116.00	7.00	-38.00
	4.00	122.00	-65.00	-56.00	121.00	5.00	-46.00
	2.00	140.00	-33.00	2.00	112.00	1.00	40.00
	1.00	104.00	17.00	43.00	91.00	2.00	89.00
	4.00	24.00	-12.00	76.00	70.00	8.00	51.00
	0.00	3.00	-10.00	94.00	66.00	12.00	18.00
	-5.00	12.00	113.00	68.00	70.00	10.00	18.00
	-14.00	1.00	222.00	23.00	44.00	11.00	13.00
	-11.00	-71.00	190.00	-3.00	16.00	14.00	2.00
	-5.00	-165.00	63.00	12.00	12.00	10.00	3.00
	0.00	-231.00	-68.00	38.00	32.00	4.00	-11.00
	-5.00	-283.00	-73.00	93.00	48.00	-11.00	-49.00
	6.00	-229.00	-32.00	119.00	50.00	-17.00	-65.00
	21.00	-85.00	-89.00	99.00	41.00	3.00	-62.00
	8.00	73.00	-102.00	70.00	60.00	15.00	-69.00
	1.00	169.00	-35.00	19.00	89.00	17.00	-84.00
	1.00	167.00	43.00	-4.00	100.00	14.00	-55.00
	3.00	105.00	22.00	-2.00	113.00	11.00	9.00
	1.00	37.00	23.00	-26.00	116.00	13.00	69.00
	2.00	-48.00	-17.00	-30.00	92.00	6.00	90.00
	3.00	-127.00	-88.00	-8.00	37.00	5.00	131.00
	-10.00	-175.00	-70.00	21.00	-6.00	7.00	141.00
	-13.00	-207.00	5.00	21.00	-43.00	7.00	98.00
	-10.00	-107.00	22.00	23.00	-72.00	10.00	20.00
	-5.00	39.00	141.00	10.00	-112.00	5.00	-28.00
	1.00	161.00	136.00	34.00	-119.00	7.00	-59.00
	6.00	223.00	51.00	45.00	-29.00	11.00	-72.00
	4.00	217.00	26.00	31.00	130.00	6.00	-39.00
	-1.00	160.00	-15.00	28.00	139.00	7.00	37.00
	-5.00	79.00	-48.00	21.00	126.00	9.00	106.00
	-7.00	1.00	-46.00	-3.00	104.00	8.00	42.00
	0.00	-71.00	15.00	-87.00	62.00	7.00	-14.00
	1.00	-84.00	41.00	-119.00	-2.00	5.00	-30.00
	2.00	-69.00	103.00	-120.00	-60.00	1.00	-14.00
	7.00	-43.00	107.00	-82.00	-141.00	5.00	-91.00
	10.00	3.00	49.00	-17.00	-211.00	12.00	-85.00
	14.00	65.00	-33.00	51.00	-239.00	16.00	-60.00
	15.00	165.00	-105.00	62.00	-211.00	16.00	-26.00
	8.00	211.00	-94.00	40.00	-163.00	19.00	18.00
	4.00	185.00	-78.00	44.00	-134.00	17.00	23.00
	4.00	121.00	-87.00	59.00	-96.00	23.00	-20.00
	1.00	53.00	-51.00	57.00	-50.00	31.00	-77.00
	-5.00	22.00	-57.00	59.00	10.00	31.00	-109.00
	-7.00	-49.00	-60.00	42.00	220.00	26.00	-109.00
	4.00	-127.00	-45.00	-2.00	291.00	24.00	-79.00
	1.00	-113.00	-92.00	-15.00	236.00	24.00	-45.00
	11.00	-29.00	-122.00	12.00	149.00	18.00	20.00
	7.00	74.00	-43.00	-4.00	75.00	6.00	120.00
	-2.00	116.00	-49.00	31.00	14.00	-9.00	120.00
	-6.00	97.00	-47.00	44.00	-52.00	-14.00	136.00
	-5.00	60.00	-32.00	15.00	-104.00	-4.00	91.00
	-7.00	-9.00	1.00	-14.00	-107.00	4.00	14.00
	-3.00	-102.00	67.00	-22.00	-111.00	23.00	-52.00
	6.00	-142.00	191.00	-49.00	-101.00	39.00	-42.00
	9.00	-144.00	292.00	-88.00	-75.00	42.00	-20.00
	6.00	-125.00	370.00	-114.00	-40.00	22.00	-21.00
	-7.00	-85.00	319.00	-63.00	5.00	10.00	0.00
	-26.00	-25.00	155.00	17.00	35.00	1.00	81.00
	-19.00	44.00	36.00	71.00	32.00	-37.00	200.00
	-10.00	104.00	-11.00	111.00	65.00	-62.00	174.00
	0.00	122.00	-54.00	104.00	114.00	-26.00	95.00
	-2.00	162.00	-132.00	85.00	135.00	2.00	7.00
	-5.00	222.00	-217.00	84.00	114.00	9.00	-33.00
	0.00	234.00	-232.00	71.00	79.00	12.00	-44.00
	2.00	208.00	-187.00	41.00	80.00	10.00	-42.00
	1.00	121.00	-133.00	33.00	82.00	9.00	-48.00
	0.00	43.00	-57.00	46.00	62.00	3.00	-48.00
	2.00	36.00	26.00	48.00	39.00	-3.00	-40.00
	2.00	33.00	29.00	32.00	75.00	1.00	-22.00
	-1.00	-16.00	-10.00	23.00	73.00	1.00	-16.00
	0.00	-112.00	-30.00	19.00	48.00	-4.00	-11.00
	-4.00	-157.00	-64.00	7.00	19.00	1.00	-22.00
	-6.00	-156.00	-81.00	-9.00	-21.00	8.00	-28.00
	-5.00	-189.00	-39.00	-46.00	-57.00	12.00	-33.00
	1.00	-214.00	29.00	-103.00	-51.00	13.00	-38.00
	5.00	-215.00	113.00	-146.00	-38.00	2.00	-40.00
	10.00	-176.00	54.00	-113.00	-42.00	-11.00	-37.00
	3.00	-97.00	-122.00	-69.00	-76.00	-6.00	-43.00
	5.00	25.00	-184.00	-48.00	-100.00	11.00	-1.00
	5.00	161.00	-144.00	-36.00	-35.00	22.00	6.00
	10.00	249.00	-46.00	-13.00	38.00	12.00	-30.00
	11.00	227.00	-4.00	7.00	48.00	13.00	11.00
	9.00	171.00	113.00	-7.00	54.00	20.00	-6.00
	8.00	114.00	316.00	-22.00	74.00	17.00	-23.00
	3.00	46.00	433.00	16.00	77.00	6.00	-31.00
	-10.00	-41.00	433.00	32.00	53.00	3.00	-39.00
	-14.00	-120.00	294.00	24.00	35.00	8.00	-16.00
	-2.00	-177.00	204.00	10.00	17.00	18.00	39.00
	4.00	-221.00	90.00	18.00	74.00	20.00	106.00
	1.00	-191.00	-114.00	32.00	125.00	18.00	32.00
	3.00	-120.00	-242.00	32.00	100.00	16.00	20.00
	21.00	-69.00	-239.00	29.00	75.00	12.00	12.00
	14.00	6.00	-145.00	17.00	42.00	19.00	22.00
	11.00	112.00	43.00	12.00	8.00	12.00	35.00
	11.00	167.00	142.00	2.00	-29.00	8.00	27.00
	15.00	163.00	237.00	-29.00	-66.00	7.00	25.00
	6.00	153.00	309.00	-47.00	-96.00	0.00	64.00
	3.00	107.00	274.00	2.00	-118.00	-2.00	4.00
	7.00	67.00	127.00	40.00	-137.00	4.00	-31.00
	3.00	43.00	-5.00	69.00	-143.00	12.00	-71.00
	-2.00	56.00	-92.00	74.00	-106.00	17.00	-65.00
	2.00	90.00	-145.00	66.00	-53.00	24.00	-27.00
	1.00	158.00	-208.00	67.00	-16.00	28.00	-35.00
	-4.00	184.00	-256.00	52.00	12.00	21.00	-53.00
	-4.00	159.00	-201.00	-4.00	23.00	15.00	11.00
	-5.00	121.00	-176.00	-32.00	18.00	6.00	13.00
	4.00	58.00	-152.00	-33.00	28.00	5.00	8.00
	-1.00	-34.00	-138.00	-51.00	48.00	11.00	64.00
	-6.00	-140.00	-126.00	-55.00	64.00	20.00	67.00
	-5.00	-206.00	-169.00	-11.00	73.00	19.00	38.00
	-3.00	-186.00	-217.00	29.00	76.00	14.00	29.00
	-2.00	-109.00	-210.00	62.00	75.00	13.00	36.00
	-8.00	-13.00	-178.00	75.00	68.00	17.00	27.00
	-11.00	53.00	-148.00	90.00	52.00	16.00	28.00
	-4.00	82.00	-101.00	97.00	47.00	15.00	0.00
	5.00	95.00	-36.00	92.00	36.00	9.00	-60.00
	6.00	89.00	72.00	73.00	14.00	5.00	-79.00
	4.00	72.00	182.00	54.00	-12.00	-4.00	-65.00
	-1.00	10.00	174.00	29.00	-3.00	-10.00	-16.00
	-6.00	-83.00	34.00	18.00	23.00	-4.00	-27.00
	-9.00	-145.00	-82.00	20.00	42.00	3.00	50.00
	-7.00	-145.00	-180.00	47.00	121.00	8.00	189.00
	-1.00	-158.00	-185.00	35.00	136.00	19.00	120.00
	-1.00	-144.00	-154.00	5.00	120.00	24.00	82.00
	7.00	-88.00	-164.00	17.00	110.00	27.00	39.00
	9.00	2.00	-141.00	44.00	70.00	22.00	-20.00
	2.00	62.00	39.00	62.00	38.00	17.00	-50.00
	11.00	117.00	218.00	14.00	7.00	31.00	-30.00
	13.00	172.00	344.00	-51.00	-36.00	26.00	-57.00
	11.00	208.00	366.00	-88.00	-69.00	17.00	-60.00
	14.00	269.00	349.00	-119.00	-125.00	8.00	-55.00
	5.00	327.00	316.00	-149.00	-178.00	3.00	-44.00
	-2.00	318.00	214.00	-159.00	-125.00	-21.00	-20.00
	-6.00	263.00	51.00	-123.00	-68.00	-71.00	0.00
	-17.00	185.00	-119.00	-39.00	-44.00	-48.00	12.00
	-11.00	54.00	-71.00	28.00	-31.00	-20.00	18.00
	2.00	-100.00	61.00	104.00	0.00	-6.00	-18.00
	9.00	-174.00	205.00	121.00	27.00	3.00	-62.00
	9.00	-215.00	302.00	71.00	39.00	14.00	-75.00
	-1.00	-193.00	352.00	20.00	51.00	23.00	-87.00
	-1.00	-181.00	348.00	-6.00	48.00	17.00	-85.00
	3.00	-189.00	263.00	-4.00	43.00	-2.00	-80.00
	6.00	-149.00	94.00	-10.00	39.00	-26.00	-83.00
	9.00	-114.00	-61.00	-23.00	35.00	-18.00	-49.00
	7.00	-117.00	-114.00	-32.00	16.00	-6.00	4.00
	11.00	-100.00	-142.00	-29.00	4.00	7.00	16.00
	11.00	-108.00	-185.00	-38.00	17.00	15.00	52.00
	12.00	-106.00	-265.00	-53.00	18.00	17.00	153.00
	8.00	-79.00	-244.00	-66.00	7.00	13.00	218.00
	13.00	4.00	-175.00	-38.00	15.00	10.00	159.00
	3.00	85.00	-100.00	-14.00	25.00	19.00	65.00
	1.00	134.00	-43.00	-21.00	54.00	23.00	11.00
	4.00	150.00	15.00	-10.00	162.00	22.00	-12.00
	-1.00	158.00	53.00	-7.00	147.00	17.00	-10.00
	-4.00	125.00	61.00	6.00	127.00	17.00	-29.00
	5.00	77.00	-4.00	45.00	110.00	20.00	-25.00
	-1.00	26.00	-59.00	58.00	66.00	14.00	-12.00
	4.00	-1.00	-167.00	81.00	-7.00	16.00	29.00
	11.00	20.00	-261.00	88.00	-69.00	17.00	28.00
	13.00	40.00	-287.00	93.00	-125.00	20.00	11.00
	11.00	9.00	-240.00	109.00	-148.00	23.00	-10.00
	6.00	12.00	-156.00	101.00	-122.00	21.00	12.00
	-2.00	44.00	-63.00	88.00	-78.00	19.00	50.00
	-14.00	116.00	23.00	56.00	-51.00	26.00	-13.00
	-16.00	288.00	13.00	17.00	-49.00	29.00	-22.00
	-15.00	364.00	-58.00	-8.00	-38.00	16.00	-8.00
	-5.00	314.00	-57.00	-34.00	-17.00	8.00	-13.00
	-6.00	209.00	-83.00	14.00	-21.00	-7.00	-30.00
	-15.00	90.00	-210.00	48.00	-26.00	1.00	-33.00
	-18.00	-59.00	-88.00	31.00	136.00	0.00	-26.00
	-24.00	-207.00	124.00	9.00	283.00	0.00	-15.00
	-27.00	-243.00	259.00	-23.00	198.00	5.00	-6.00
	-12.00	-257.00	443.00	-60.00	110.00	8.00	-8.00
	-3.00	-200.00	500.00	-79.00	76.00	9.00	-7.00
	6.00	-59.00	431.00	-71.00	33.00	8.00	-7.00
	15.00	13.00	318.00	-67.00	-17.00	-1.00	1.00
	25.00	6.00	140.00	-64.00	-90.00	-5.00	9.00
	25.00	-36.00	91.00	-49.00	-156.00	-1.00	-1.00
	20.00	-99.00	192.00	-34.00	-208.00	-3.00	-7.00
	33.00	-135.00	175.00	-26.00	-271.00	-8.00	-10.00
	27.00	-149.00	47.00	-6.00	-223.00	4.00	-10.00
	18.00	-129.00	-61.00	9.00	-161.00	15.00	-10.00
	12.00	-82.00	-89.00	46.00	-78.00	18.00	-20.00
	7.00	-45.00	-110.00	70.00	13.00	20.00	-25.00
	-3.00	-6.00	-133.00	72.00	73.00	18.00	-14.00
	-8.00	49.00	-169.00	69.00	96.00	17.00	-41.00
	1.00	105.00	-188.00	63.00	96.00	12.00	-72.00
	11.00	143.00	-204.00	68.00	94.00	11.00	-93.00
	12.00	128.00	-233.00	91.00	101.00	14.00	-92.00
	14.00	97.00	-201.00	108.00	92.00	12.00	-82.00
	10.00	61.00	-142.00	68.00	78.00	7.00	-18.00
	12.00	41.00	-117.00	48.00	69.00	7.00	77.00
	10.00	5.00	-78.00	11.00	48.00	12.00	216.00
	2.00	-32.00	0.00	-27.00	20.00	15.00	211.00
	-20.00	-54.00	-24.00	-43.00	18.00	21.00	187.00
	-20.00	-42.00	-112.00	-53.00	44.00	22.00	116.00
	-6.00	16.00	-103.00	-93.00	63.00	19.00	71.00
	5.00	79.00	-87.00	-111.00	78.00	15.00	35.00
	7.00	93.00	-8.00	-103.00	89.00	17.00	17.00
	10.00	87.00	39.00	-70.00	189.00	11.00	-4.00
	12.00	68.00	1.00	-3.00	261.00	2.00	-22.00
	15.00	67.00	-40.00	63.00	432.00	-4.00	-31.00
	20.00	64.00	82.00	92.00	390.00	-23.00	-34.00
	22.00	80.00	85.00	101.00	304.00	-17.00	-37.00
	30.00	79.00	-3.00	128.00	172.00	-9.00	-36.00
	30.00	78.00	-5.00	123.00	27.00	-4.00	-33.00
	8.00	104.00	-10.00	56.00	-109.00	-1.00	-31.00
	6.00	105.00	-87.00	28.00	-216.00	-6.00	-33.00
	10.00	77.00	-59.00	33.00	-293.00	-6.00	-55.00
	1.00	71.00	34.00	20.00	-356.00	0.00	-94.00
	-9.00	78.00	143.00	-3.00	-411.00	10.00	-89.00
	-12.00	98.00	242.00	-24.00	-405.00	20.00	-102.00
	-23.00	130.00	269.00	-42.00	-346.00	26.00	-104.00
	-22.00	102.00	259.00	-40.00	-283.00	19.00	-85.00
	-28.00	69.00	201.00	-50.00	-183.00	8.00	-45.00
	-33.00	30.00	-27.00	-61.00	-62.00	11.00	63.00
	-32.00	-16.00	-119.00	-52.00	4.00	13.00	170.00
	-26.00	-66.00	-142.00	-30.00	18.00	17.00	134.00
	-31.00	-107.00	-136.00	11.00	37.00	18.00	88.00
	-36.00	-118.00	-180.00	66.00	55.00	27.00	99.00
	-47.00	-48.00	-113.00	79.00	62.00	27.00	93.00
	-53.00	20.00	25.00	64.00	57.00	13.00	69.00
	-56.00	41.00	74.00	48.00	64.00	3.00	-16.00
	-52.00	11.00	23.00	33.00	94.00	5.00	-70.00
	-47.00	52.00	-53.00	26.00	130.00	10.00	-45.00
	-30.00	148.00	-24.00	10.00	149.00	11.00	-38.00
	-22.00	157.00	54.00	-21.00	165.00	10.00	-48.00
	-15.00	114.00	131.00	-66.00	160.00	10.00	-53.00
	-5.00	56.00	196.00	-80.00	135.00	-1.00	-33.00
	7.00	-31.00	119.00	-67.00	115.00	-5.00	-25.00
	3.00	-151.00	33.00	-42.00	121.00	-3.00	-28.00
	12.00	-258.00	34.00	-19.00	108.00	4.00	-53.00
	8.00	-329.00	84.00	-26.00	77.00	8.00	-15.00
	9.00	-326.00	166.00	-29.00	61.00	8.00	-28.00
	1.00	-214.00	90.00	-25.00	51.00	12.00	-31.00
	-5.00	-84.00	-58.00	4.00	44.00	17.00	-19.00
	-8.00	-16.00	-115.00	36.00	17.00	17.00	109.00
	-5.00	90.00	-210.00	38.00	-31.00	18.00	99.00
	-6.00	167.00	-228.00	33.00	-41.00	23.00	22.00
	-4.00	146.00	-163.00	52.00	-27.00	25.00	-71.00
	1.00	127.00	-72.00	88.00	-32.00	22.00	-133.00
	2.00	64.00	50.00	77.00	-36.00	15.00	-104.00
	6.00	-32.00	192.00	27.00	-1.00	-1.00	-58.00
	21.00	-41.00	203.00	-3.00	23.00	-17.00	26.00
	38.00	-12.00	167.00	-32.00	31.00	-23.00	104.00
	43.00	-68.00	120.00	-38.00	38.00	-21.00	99.00
	37.00	-139.00	-20.00	-34.00	30.00	-13.00	79.00
	25.00	-181.00	-188.00	-30.00	30.00	-4.00	64.00
	6.00	-136.00	-255.00	-22.00	157.00	-1.00	62.00
	16.00	-53.00	-164.00	9.00	217.00	1.00	15.00
	23.00	74.00	-27.00	21.00	230.00	9.00	1.00
	20.00	164.00	20.00	37.00	165.00	12.00	-15.00
	9.00	192.00	132.00	11.00	64.00	10.00	-12.00
	11.00	199.00	242.00	20.00	-70.00	12.00	12.00
	14.00	189.00	274.00	30.00	-142.00	12.00	67.00
	23.00	146.00	184.00	69.00	-193.00	16.00	83.00
	16.00	43.00	101.00	45.00	-254.00	19.00	47.00
	20.00	-53.00	67.00	19.00	-280.00	22.00	-13.00
	19.00	-114.00	29.00	4.00	-267.00	9.00	-59.00
	16.00	-126.00	10.00	-44.00	-221.00	-2.00	-57.00
	13.00	-91.00	-104.00	-66.00	-166.00	5.00	-88.00
	9.00	-35.00	-253.00	-22.00	-101.00	6.00	-82.00
	9.00	20.00	-274.00	-9.00	-42.00	4.00	-54.00
	11.00	60.00	-226.00	-3.00	-27.00	1.00	30.00
	3.00	120.00	-146.00	7.00	-35.00	1.00	136.00
	7.00	135.00	-83.00	-20.00	10.00	18.00	92.00
	16.00	152.00	-14.00	-58.00	61.00	20.00	42.00
	14.00	152.00	98.00	-92.00	99.00	14.00	12.00
	8.00	110.00	160.00	-62.00	115.00	-7.00	-43.00
	17.00	64.00	74.00	-6.00	117.00	-19.00	-44.00
	14.00	-22.00	-83.00	34.00	110.00	-2.00	-62.00
	15.00	-75.00	-145.00	62.00	110.00	11.00	-30.00
	6.00	-46.00	-175.00	92.00	103.00	16.00	-9.00
	-1.00	-41.00	-119.00	109.00	104.00	18.00	8.00
	1.00	-33.00	-28.00	91.00	97.00	19.00	-20.00
	0.00	-4.00	48.00	91.00	94.00	22.00	-27.00
	2.00	26.00	79.00	105.00	94.00	19.00	-38.00
	-4.00	115.00	131.00	94.00	92.00	9.00	-22.00
	-1.00	146.00	195.00	56.00	95.00	6.00	-13.00
	1.00	165.00	256.00	14.00	82.00	11.00	-20.00
	-9.00	133.00	146.00	9.00	34.00	21.00	-11.00
	-11.00	77.00	46.00	10.00	-2.00	28.00	-15.00
	-11.00	23.00	18.00	-2.00	-16.00	30.00	-33.00
	-12.00	-55.00	16.00	-5.00	-56.00	23.00	-18.00
	-10.00	-184.00	-47.00	5.00	-65.00	10.00	26.00
	-9.00	-231.00	-74.00	4.00	-42.00	-32.00	98.00
	-11.00	-208.00	-63.00	7.00	-12.00	-30.00	149.00
	-9.00	-126.00	-164.00	29.00	26.00	1.00	111.00
	-10.00	-32.00	-247.00	26.00	80.00	15.00	78.00
	-10.00	13.00	-228.00	24.00	95.00	20.00	33.00
	-2.00	36.00	-183.00	11.00	102.00	19.00	-40.00
	3.00	34.00	-130.00	-10.00	98.00	13.00	-108.00
	-2.00	13.00	-26.00	-32.00	89.00	12.00	-111.00
	-8.00	-12.00	112.00	-52.00	79.00	12.00	-77.00
	4.00	2.00	318.00	-87.00	63.00	3.00	-41.00
	12.00	66.00	368.00	-108.00	39.00	-7.00	14.00
	9.00	98.00	286.00	-52.00	16.00	-5.00	139.00
	11.00	87.00	191.00	-12.00	-13.00	-5.00	90.00
	9.00	98.00	114.00	-31.00	-58.00	-6.00	14.00
	2.00	116.00	39.00	-66.00	-96.00	1.00	8.00
	-5.00	80.00	-2.00	-81.00	-131.00	9.00	-8.00
	-2.00	-8.00	-3.00	-71.00	-169.00	13.00	-39.00
	-3.00	-95.00	46.00	-58.00	-142.00	17.00	-64.00
	-4.00	-121.00	28.00	-46.00	-79.00	20.00	-38.00
	-7.00	-66.00	-26.00	-5.00	-25.00	21.00	-48.00
	-10.00	10.00	-48.00	62.00	20.00	18.00	-33.00
	2.00	49.00	-113.00	138.00	50.00	14.00	-37.00
	11.00	52.00	-206.00	166.00	71.00	11.00	-27.00
	2.00	57.00	-241.00	112.00	110.00	10.00	8.00
	-8.00	85.00	-258.00	83.00	117.00	7.00	62.00
	9.00	115.00	-177.00	94.00	102.00	-1.00	52.00
	24.00	159.00	-91.00	99.00	71.00	-2.00	24.00
	1.00	150.00	-75.00	62.00	33.00	8.00	6.00
	-3.00	174.00	-9.00	29.00	9.00	8.00	40.00
	0.00	177.00	94.00	-11.00	-22.00	3.00	58.00
	-14.00	177.00	234.00	-46.00	-48.00	-4.00	45.00
	-1.00	165.00	255.00	-45.00	-75.00	-3.00	-4.00
	0.00	90.00	172.00	32.00	-99.00	-2.00	-39.00
	0.00	-1.00	80.00	69.00	-107.00	13.00	-51.00
	8.00	-50.00	9.00	77.00	-58.00	33.00	-57.00
	8.00	-55.00	29.00	36.00	-21.00	33.00	-59.00
	10.00	-113.00	-23.00	20.00	30.00	23.00	-41.00
	2.00	-214.00	-8.00	-22.00	190.00	14.00	2.00
	-3.00	-192.00	3.00	-58.00	232.00	6.00	21.00
	3.00	-112.00	-82.00	-95.00	230.00	6.00	-45.00
	-5.00	-41.00	-89.00	-145.00	188.00	4.00	-83.00
	1.00	-27.00	-27.00	-135.00	125.00	-1.00	-97.00
	10.00	-9.00	-25.00	-106.00	31.00	-4.00	-93.00
	10.00	-36.00	-86.00	-20.00	-50.00	2.00	-45.00
	13.00	-102.00	-126.00	82.00	-97.00	7.00	24.00
	10.00	-113.00	-59.00	126.00	-130.00	8.00	250.00
	7.00	-119.00	110.00	60.00	-142.00	6.00	321.00
	7.00	-77.00	95.00	30.00	-137.00	23.00	237.00
	-4.00	-55.00	-95.00	60.00	-129.00	30.00	137.00
	-8.00	-59.00	-131.00	63.00	-100.00	31.00	27.00
	0.00	-43.00	-87.00	9.00	-76.00	36.00	-8.00
	-9.00	-17.00	-1.00	-14.00	-31.00	34.00	-26.00
	-3.00	13.00	45.00	-32.00	16.00	2.00	-45.00
	-1.00	39.00	23.00	-31.00	58.00	-47.00	-33.00
	13.00	65.00	78.00	-21.00	110.00	-32.00	-25.00
	10.00	93.00	166.00	-7.00	143.00	-10.00	-28.00
	-18.00	84.00	170.00	29.00	189.00	-1.00	-30.00
	-11.00	99.00	112.00	45.00	329.00	7.00	-71.00
	-3.00	120.00	78.00	47.00	261.00	3.00	-107.00
	-1.00	97.00	20.00	15.00	125.00	-4.00	-69.00
	3.00	31.00	83.00	7.00	-10.00	-12.00	-53.00
	5.00	-15.00	85.00	9.00	-120.00	0.00	-31.00
	3.00	-11.00	66.00	4.00	-152.00	16.00	0.00
	6.00	16.00	98.00	20.00	-173.00	21.00	28.00
	5.00	34.00	86.00	25.00	-205.00	17.00	9.00
	-9.00	31.00	120.00	-10.00	-215.00	23.00	-18.00
	8.00	7.00	133.00	1.00	-188.00	31.00	-53.00
	-3.00	-1.00	67.00	36.00	-135.00	28.00	-44.00
	1.00	-1.00	-4.00	30.00	-90.00	22.00	-37.00
	11.00	2.00	-67.00	11.00	-30.00	16.00	-25.00
	-2.00	-26.00	-118.00	3.00	57.00	3.00	-62.00
	10.00	-61.00	-162.00	4.00	147.00	3.00	-58.00
	4.00	-69.00	-186.00	19.00	176.00	12.00	-49.00
	11.00	-37.00	-190.00	27.00	164.00	17.00	-3.00
	21.00	3.00	-184.00	28.00	152.00	10.00	49.00
	20.00	54.00	-164.00	20.00	120.00	-1.00	-7.00
	9.00	109.00	-133.00	-7.00	81.00	-1.00	9.00
	0.00	131.00	-120.00	-39.00	45.00	-1.00	100.00
	1.00	122.00	-64.00	-23.00	13.00	-2.00	148.00
	12.00	97.00	18.00	-24.00	30.00	1.00	140.00
	5.00	110.00	1.00	-11.00	64.00	7.00	111.00
	-20.00	110.00	-58.00	-2.00	9.00	11.00	55.00
	-27.00	123.00	-113.00	-15.00	61.00	22.00	-1.00
	-50.00	134.00	-121.00	-22.00	75.00	24.00	-8.00
	-43.00	135.00	-89.00	-38.00	23.00	21.00	4.00
	-21.00	163.00	-150.00	-8.00	-12.00	13.00	17.00
	-16.00	152.00	-125.00	9.00	-40.00	15.00	9.00
	-18.00	102.00	69.00	-7.00	-81.00	10.00	-7.00
	-6.00	18.00	167.00	38.00	-112.00	5.00	-13.00
	3.00	-39.00	119.00	94.00	-135.00	2.00	-22.00
	2.00	-48.00	136.00	69.00	-150.00	2.00	-26.00
	0.00	2.00	150.00	18.00	-150.00	-1.00	-40.00
	1.00	11.00	190.00	-11.00	-122.00	-3.00	-41.00
	14.00	11.00	142.00	2.00	-88.00	10.00	-38.00
	23.00	18.00	111.00	9.00	-56.00	14.00	-30.00
	2.00	-17.00	103.00	1.00	-23.00	15.00	-10.00
	2.00	-68.00	89.00	-7.00	11.00	20.00	2.00
	5.00	-124.00	100.00	-2.00	44.00	18.00	19.00
	8.00	-193.00	67.00	-3.00	78.00	18.00	28.00
	15.00	-272.00	47.00	-6.00	258.00	16.00	-15.00
	14.00	-309.00	14.00	-20.00	360.00	14.00	-60.00
	6.00	-280.00	3.00	-21.00	336.00	13.00	-75.00
	7.00	-186.00	58.00	-9.00	269.00	0.00	-69.00
	17.00	-81.00	127.00	-23.00	198.00	-8.00	-60.00
	15.00	11.00	78.00	-4.00	108.00	-12.00	-36.00
	16.00	92.00	-41.00	54.00	39.00	-9.00	-15.00
	7.00	98.00	-71.00	102.00	-16.00	3.00	-1.00
	7.00	50.00	-52.00	122.00	-71.00	13.00	63.00
	7.00	37.00	-35.00	108.00	-131.00	11.00	92.00
	2.00	3.00	-23.00	65.00	-182.00	10.00	67.00
	6.00	-11.00	-21.00	30.00	-203.00	4.00	36.00
	-6.00	-4.00	35.00	-35.00	-214.00	-2.00	111.00
	-4.00	28.00	83.00	-125.00	-226.00	-2.00	145.00
	5.00	113.00	107.00	-147.00	-173.00	-3.00	49.00
	-4.00	192.00	92.00	-123.00	-107.00	4.00	-1.00
	-1.00	252.00	62.00	-79.00	-45.00	9.00	-25.00
	3.00	217.00	16.00	-37.00	6.00	14.00	-25.00
	6.00	150.00	-114.00	-3.00	48.00	21.00	2.00
	4.00	96.00	-207.00	2.00	69.00	20.00	-1.00
	3.00	68.00	-225.00	11.00	101.00	18.00	4.00
	0.00	16.00	-236.00	42.00	205.00	13.00	-2.00
	1.00	-46.00	-200.00	54.00	233.00	12.00	-62.00
	-2.00	-68.00	-134.00	60.00	208.00	12.00	-74.00
	-9.00	-29.00	-75.00	54.00	184.00	14.00	-77.00
	-5.00	-6.00	23.00	42.00	145.00	9.00	-80.00
	-2.00	-2.00	122.00	37.00	103.00	0.00	-18.00
	3.00	-11.00	145.00	26.00	46.00	-4.00	-30.00
	2.00	-10.00	134.00	5.00	-9.00	0.00	-51.00
	-1.00	16.00	84.00	-14.00	-43.00	6.00	-1.00
	-4.00	43.00	13.00	-26.00	-88.00	11.00	63.00
	-9.00	106.00	-66.00	-31.00	-159.00	6.00	101.00
	-6.00	154.00	-269.00	19.00	-152.00	13.00	152.00
	-2.00	168.00	-449.00	63.00	-106.00	26.00	111.00
	2.00	151.00	-461.00	82.00	-45.00	32.00	53.00
	3.00	105.00	-314.00	59.00	-13.00	34.00	-14.00
	4.00	39.00	-140.00	57.00	21.00	31.00	-67.00
	-3.00	-30.00	95.00	50.00	59.00	14.00	-66.00
	1.00	-89.00	262.00	53.00	78.00	-2.00	-31.00
	0.00	-159.00	379.00	41.00	83.00	-6.00	-25.00
	10.00	-207.00	480.00	16.00	76.00	-14.00	-31.00
	5.00	-159.00	403.00	39.00	125.00	-26.00	-30.00
	9.00	-92.00	322.00	1.00	204.00	-16.00	-34.00
	15.00	-31.00	352.00	-40.00	195.00	-15.00	-39.00
	-1.00	18.00	396.00	-83.00	191.00	-21.00	-52.00
	-1.00	26.00	370.00	-137.00	178.00	-21.00	-80.00
	6.00	16.00	257.00	-130.00	312.00	-8.00	-82.00
	-3.00	10.00	118.00	-95.00	212.00	-1.00	1.00
	0.00	5.00	-25.00	-58.00	93.00	8.00	79.00
	4.00	-2.00	-179.00	-8.00	0.00	16.00	74.00
	-1.00	-7.00	-254.00	38.00	-102.00	18.00	86.00
	-1.00	36.00	-287.00	73.00	-173.00	20.00	82.00
	3.00	92.00	-323.00	108.00	-214.00	17.00	45.00
	6.00	146.00	-385.00	148.00	-285.00	17.00	24.00
	10.00	136.00	-400.00	181.00	-321.00	21.00	18.00
	0.00	86.00	-231.00	182.00	-303.00	23.00	6.00
	0.00	19.00	-75.00	138.00	-288.00	13.00	-3.00
	-3.00	-15.00	9.00	70.00	-268.00	19.00	-9.00
	-11.00	-25.00	5.00	24.00	-258.00	27.00	-11.00
	6.00	-36.00	89.00	-11.00	-190.00	28.00	-3.00
	2.00	-74.00	213.00	-60.00	-62.00	27.00	-8.00
	-7.00	-47.00	285.00	-120.00	-3.00	19.00	-13.00
	-5.00	-23.00	234.00	-126.00	50.00	16.00	-11.00
	-9.00	-35.00	54.00	-47.00	100.00	17.00	-25.00
	5.00	20.00	-54.00	33.00	115.00	19.00	-31.00
	16.00	82.00	-78.00	32.00	153.00	17.00	-29.00
	-8.00	53.00	-78.00	14.00	135.00	11.00	7.00
	-2.00	15.00	-70.00	1.00	94.00	8.00	19.00
	6.00	-40.00	-20.00	-43.00	50.00	4.00	-29.00
	11.00	-63.00	25.00	-43.00	47.00	-4.00	-5.00
	2.00	-24.00	-56.00	-31.00	174.00	-8.00	43.00
	4.00	60.00	-153.00	-9.00	206.00	-9.00	44.00
	9.00	111.00	-203.00	69.00	166.00	-5.00	13.00
	7.00	116.00	-194.00	94.00	92.00	8.00	-19.00
	3.00	123.00	-194.00	106.00	24.00	18.00	-30.00
	1.00	111.00	-183.00	85.00	-33.00	24.00	-26.00
	-11.00	71.00	-181.00	17.00	-71.00	24.00	-22.00
	-14.00	10.00	-76.00	-51.00	-92.00	16.00	-66.00
	-8.00	-49.00	-65.00	-90.00	-95.00	3.00	-71.00
	-3.00	-110.00	-174.00	-107.00	-82.00	-2.00	-57.00
	-13.00	-139.00	-74.00	-115.00	-80.00	-6.00	-55.00
	-6.00	-90.00	37.00	-89.00	-71.00	-5.00	-86.00
	-4.00	-31.00	129.00	-41.00	-60.00	-5.00	-62.00
	-9.00	27.00	200.00	1.00	-8.00	-7.00	9.00
	-6.00	63.00	222.00	24.00	56.00	-5.00	100.00
	-14.00	78.00	360.00	-6.00	87.00	7.00	180.00
	0.00	76.00	503.00	-27.00	110.00	5.00	252.00
	9.00	38.00	379.00	-11.00	108.00	-4.00	242.00
	6.00	-12.00	210.00	11.00	96.00	-2.00	149.00
	6.00	-38.00	167.00	21.00	75.00	6.00	66.00
	11.00	19.00	139.00	16.00	60.00	15.00	-18.00
	5.00	70.00	74.00	16.00	57.00	18.00	-64.00
	1.00	68.00	20.00	13.00	60.00	13.00	-52.00
	0.00	36.00	-64.00	17.00	51.00	21.00	-7.00
	-2.00	19.00	-41.00	33.00	55.00	12.00	68.00
	6.00	-39.00	-32.00	32.00	81.00	5.00	39.00
	5.00	-121.00	-43.00	20.00	87.00	6.00	-1.00
	5.00	-147.00	-112.00	21.00	87.00	12.00	-13.00
	2.00	-119.00	-128.00	11.00	88.00	14.00	-33.00
	-2.00	-92.00	-65.00	-19.00	74.00	9.00	-57.00
	14.00	-62.00	14.00	-22.00	60.00	-6.00	-47.00
	-15.00	-10.00	100.00	-25.00	55.00	-8.00	-28.00
	-22.00	32.00	131.00	-17.00	53.00	1.00	-34.00
	-8.00	50.00	177.00	-18.00	64.00	6.00	-59.00
	4.00	53.00	88.00	24.00	224.00	9.00	-56.00
	3.00	51.00	-28.00	89.00	328.00	6.00	-51.00
	13.00	93.00	-4.00	85.00	252.00	5.00	-24.00
	8.00	150.00	70.00	52.00	125.00	10.00	17.00
	0.00	206.00	72.00	46.00	-27.00	11.00	45.00
	27.00	195.00	4.00	69.00	-154.00	5.00	51.00
	34.00	155.00	-49.00	64.00	-208.00	5.00	23.00
	9.00	86.00	-143.00	52.00	-248.00	9.00	22.00
	17.00	35.00	-205.00	25.00	-292.00	11.00	-8.00
	21.00	-36.00	-233.00	-12.00	-344.00	17.00	-85.00
	10.00	-79.00	-285.00	18.00	-319.00	20.00	-65.00
	-2.00	-95.00	-334.00	58.00	-190.00	26.00	-63.00
	-5.00	-98.00	-337.00	84.00	-116.00	27.00	-64.00
	-1.00	-52.00	-418.00	78.00	-61.00	33.00	-55.00
	-3.00	-39.00	-474.00	59.00	8.00	32.00	-39.00
	-33.00	1.00	-333.00	55.00	57.00	28.00	-8.00
	-20.00	14.00	-45.00	12.00	80.00	19.00	58.00
	-18.00	28.00	207.00	-55.00	74.00	13.00	80.00
	-13.00	58.00	375.00	-92.00	57.00	17.00	37.00
	-24.00	73.00	496.00	-99.00	30.00	23.00	11.00
	-23.00	101.00	429.00	-84.00	-8.00	14.00	11.00
	-15.00	131.00	348.00	-61.00	-51.00	-4.00	11.00
	-9.00	144.00	161.00	-44.00	-69.00	-3.00	5.00
	-9.00	170.00	54.00	-38.00	-57.00	9.00	4.00
	-5.00	120.00	-6.00	-20.00	-38.00	10.00	16.00
	-3.00	64.00	-43.00	22.00	9.00	6.00	24.00
	7.00	-3.00	-78.00	30.00	147.00	-7.00	19.00
	16.00	-64.00	-15.00	11.00	229.00	-25.00	-9.00
	32.00	-120.00	-10.00	-41.00	201.00	-34.00	-48.00
	38.00	-139.00	28.00	-137.00	168.00	-26.00	-40.00
	44.00	-151.00	104.00	-96.00	130.00	-26.00	13.00
	29.00	-127.00	67.00	-50.00	75.00	-16.00	23.00
	21.00	-85.00	6.00	2.00	17.00	0.00	-21.00
	17.00	-55.00	-41.00	66.00	-49.00	2.00	-18.00
	5.00	-78.00	-132.00	163.00	-126.00	13.00	-3.00
	3.00	-78.00	-132.00	191.00	-153.00	20.00	-15.00
	24.00	-36.00	-109.00	155.00	-138.00	34.00	-33.00
	9.00	-43.00	-119.00	147.00	-103.00	47.00	40.00
	-1.00	-40.00	-50.00	125.00	-72.00	58.00	104.00
	-7.00	-42.00	-14.00	79.00	-43.00	54.00	63.00
	-12.00	-18.00	70.00	19.00	1.00	46.00	10.00
	2.00	2.00	258.00	-74.00	46.00	24.00	-16.00
	4.00	25.00	346.00	-135.00	79.00	-43.00	1.00
	-2.00	30.00	293.00	-173.00	105.00	-75.00	47.00
	3.00	30.00	201.00	-151.00	136.00	-37.00	79.00
	3.00	50.00	130.00	-103.00	135.00	-11.00	108.00
	-3.00	81.00	70.00	-85.00	114.00	5.00	94.00
	-7.00	112.00	41.00	-69.00	98.00	10.00	45.00
	-2.00	145.00	-35.00	-27.00	76.00	10.00	15.00
	7.00	197.00	-121.00	29.00	32.00	8.00	2.00
	11.00	295.00	-181.00	63.00	11.00	5.00	3.00
	6.00	324.00	-220.00	96.00	54.00	6.00	17.00
	-3.00	270.00	-219.00	108.00	70.00	12.00	46.00
	-7.00	148.00	-199.00	81.00	70.00	14.00	38.00
	-10.00	14.00	-147.00	44.00	62.00	15.00	4.00
	-20.00	-61.00	-39.00	39.00	50.00	16.00	-18.00
	-18.00	-109.00	-35.00	48.00	27.00	19.00	-34.00
	-24.00	-176.00	-140.00	42.00	9.00	22.00	-59.00
	-17.00	-212.00	-206.00	24.00	-4.00	24.00	-71.00
	-10.00	-146.00	-114.00	-10.00	-16.00	19.00	-67.00
	-4.00	-12.00	-31.00	-37.00	-48.00	15.00	-56.00
	6.00	102.00	-3.00	5.00	-76.00	21.00	-60.00
	0.00	131.00	60.00	50.00	-10.00	25.00	-41.00
	7.00	85.00	107.00	58.00	43.00	14.00	-10.00
	23.00	-5.00	83.00	62.00	60.00	-4.00	-21.00
	-15.00	-62.00	62.00	47.00	56.00	-6.00	-46.00
	22.00	-134.00	-35.00	70.00	41.00	2.00	-60.00
	21.00	-192.00	-110.00	56.00	41.00	3.00	-64.00
	7.00	-185.00	-177.00	-10.00	210.00	10.00	12.00
	-2.00	-146.00	-98.00	-70.00	171.00	11.00	132.00
	9.00	-37.00	23.00	-76.00	91.00	11.00	122.00
	15.00	107.00	164.00	-70.00	-6.00	2.00	46.00
	8.00	185.00	113.00	-23.00	-72.00	-4.00	10.00
	11.00	167.00	86.00	23.00	-104.00	3.00	4.00
	4.00	108.00	114.00	19.00	-81.00	7.00	-13.00
	2.00	44.00	131.00	12.00	-75.00	6.00	-16.00
	17.00	-53.00	178.00	-8.00	-102.00	7.00	-12.00
