
	-17.00	-41.00	-49.00	65.00	57.00	-4.00	1.00
	-21.00	-31.00	94.00	-6.00	16.00	-2.00	-4.00
	-25.00	-8.00	189.00	-39.00	-8.00	-1.00	-23.00
	-26.00	18.00	118.00	-66.00	-20.00	7.00	-24.00
	-11.00	-5.00	36.00	-80.00	-30.00	14.00	-13.00
	20.00	-14.00	-45.00	-106.00	-22.00	16.00	-14.00
	37.00	-5.00	-84.00	-80.00	-5.00	16.00	6.00
	19.00	20.00	-17.00	-61.00	10.00	14.00	7.00
	14.00	40.00	81.00	23.00	20.00	13.00	3.00
	3.00	33.00	137.00	-38.00	24.00	-2.00	-3.00
	-1.00	25.00	214.00	-82.00	34.00	6.00	0.00
	-19.00	39.00	355.00	-73.00	40.00	19.00	2.00
	-5.00	43.00	238.00	-49.00	44.00	21.00	-5.00
	-24.00	44.00	74.00	18.00	47.00	28.00	-9.00
	-28.00	43.00	-96.00	117.00	36.00	25.00	-7.00
	-39.00	32.00	-291.00	139.00	21.00	-5.00	14.00
	-50.00	15.00	-430.00	127.00	19.00	-18.00	21.00
	-47.00	2.00	-349.00	75.00	25.00	-47.00	18.00
	-40.00	11.00	-176.00	28.00	18.00	-16.00	23.00
	-34.00	32.00	-51.00	-19.00	9.00	2.00	26.00
	-27.00	51.00	84.00	-30.00	-2.00	11.00	23.00
	-22.00	31.00	137.00	-5.00	-14.00	5.00	16.00
	-12.00	1.00	64.00	4.00	-8.00	8.00	3.00
	-10.00	0.00	-5.00	-6.00	-10.00	11.00	-1.00
	-11.00	20.00	-84.00	34.00	16.00	9.00	-5.00
	-12.00	49.00	-236.00	59.00	71.00	1.00	-47.00
	-6.00	47.00	-265.00	45.00	85.00	-11.00	-34.00
	-14.00	44.00	-184.00	71.00	59.00	1.00	-26.00
	-7.00	26.00	-67.00	81.00	35.00	6.00	-25.00
	-13.00	9.00	94.00	108.00	6.00	1.00	-16.00
	-15.00	-31.00	246.00	74.00	-17.00	12.00	-21.00
	-19.00	-42.00	306.00	20.00	-50.00	12.00	-12.00
	-28.00	-37.00	281.00	-4.00	-56.00	-5.00	2.00
	-15.00	-35.00	184.00	-66.00	-46.00	1.00	7.00
	-14.00	-2.00	96.00	-116.00	-44.00	7.00	2.00
	-8.00	21.00	-62.00	-75.00	-45.00	4.00	8.00
	11.00	10.00	-47.00	30.00	-32.00	15.00	21.00
	28.00	22.00	63.00	44.00	-27.00	14.00	31.00
	37.00	37.00	53.00	56.00	-11.00	13.00	36.00
	45.00	20.00	120.00	46.00	17.00	19.00	44.00
	24.00	7.00	-7.00	-32.00	38.00	12.00	28.00
	25.00	6.00	-195.00	-68.00	49.00	0.00	4.00
	25.00	1.00	-247.00	-12.00	50.00	3.00	-6.00
	10.00	0.00	-146.00	24.00	34.00	15.00	-9.00
	-11.00	-5.00	-19.00	24.00	24.00	18.00	-6.00
	-4.00	13.00	131.00	18.00	28.00	14.00	-3.00
	6.00	4.00	151.00	-33.00	23.00	15.00	17.00
	8.00	17.00	69.00	-50.00	10.00	17.00	7.00
	2.00	11.00	-118.00	-21.00	7.00	10.00	6.00
	14.00	29.00	-173.00	-6.00	8.00	8.00	10.00
	21.00	15.00	-138.00	9.00	6.00	9.00	-4.00
	14.00	2.00	-16.00	4.00	9.00	4.00	-14.00
	8.00	-11.00	44.00	-8.00	14.00	0.00	-16.00
	4.00	-11.00	128.00	-73.00	8.00	2.00	-31.00
	-2.00	-4.00	96.00	-18.00	11.00	7.00	-21.00
	-16.00	11.00	137.00	-11.00	23.00	6.00	-14.00
	-15.00	14.00	130.00	-10.00	38.00	6.00	-15.00
	-15.00	13.00	84.00	0.00	39.00	-5.00	-18.00
	-19.00	8.00	156.00	-16.00	25.00	11.00	0.00
	-21.00	3.00	134.00	21.00	8.00	12.00	-8.00
	-6.00	10.00	84.00	51.00	1.00	4.00	7.00
	15.00	16.00	66.00	-3.00	0.00	-1.00	16.00
	31.00	22.00	29.00	-34.00	32.00	2.00	14.00
	33.00	29.00	-144.00	-35.00	20.00	6.00	12.00
	28.00	31.00	-223.00	-17.00	0.00	8.00	21.00
	33.00	24.00	-255.00	47.00	-10.00	0.00	19.00
	22.00	42.00	-289.00	77.00	-17.00	-17.00	-2.00
	23.00	48.00	-198.00	52.00	-12.00	-11.00	-20.00
	-1.00	41.00	-20.00	31.00	-4.00	-1.00	-10.00
	-19.00	33.00	57.00	32.00	20.00	-1.00	-6.00
	-32.00	15.00	44.00	28.00	26.00	2.00	4.00
	-39.00	-6.00	46.00	-9.00	19.00	10.00	3.00
	-44.00	-13.00	25.00	-70.00	18.00	17.00	-1.00
	-56.00	-14.00	-1.00	-90.00	5.00	16.00	15.00
	-53.00	-3.00	-57.00	-124.00	-13.00	12.00	18.00
	-42.00	4.00	-21.00	-62.00	-14.00	23.00	18.00
	-33.00	-1.00	56.00	-17.00	-14.00	23.00	7.00
	-27.00	-1.00	75.00	34.00	-12.00	15.00	27.00
	-26.00	-9.00	67.00	57.00	-6.00	-2.00	13.00
	-23.00	2.00	90.00	54.00	-5.00	-13.00	-20.00
	-6.00	-8.00	90.00	54.00	-5.00	-9.00	-39.00
	-8.00	-6.00	79.00	56.00	6.00	-11.00	-32.00
	-6.00	21.00	100.00	7.00	35.00	10.00	-3.00
	-5.00	46.00	83.00	38.00	18.00	28.00	1.00
	8.00	12.00	50.00	32.00	8.00	36.00	14.00
	11.00	22.00	-42.00	73.00	0.00	28.00	14.00
	20.00	56.00	-77.00	95.00	12.00	17.00	-2.00
	34.00	80.00	-62.00	84.00	58.00	24.00	-36.00
	43.00	77.00	-151.00	47.00	56.00	27.00	-53.00
	50.00	66.00	-241.00	31.00	40.00	16.00	-45.00
	43.00	48.00	-298.00	6.00	14.00	3.00	-38.00
	38.00	-2.00	-300.00	1.00	0.00	-47.00	-16.00
	34.00	-41.00	-169.00	0.00	13.00	-28.00	5.00
	22.00	-63.00	7.00	0.00	17.00	-14.00	12.00
	2.00	-57.00	178.00	-46.00	-12.00	-9.00	8.00
	-10.00	-27.00	216.00	-110.00	-17.00	3.00	7.00
	-26.00	-17.00	172.00	-128.00	-5.00	6.00	-1.00
	-36.00	-21.00	125.00	-94.00	-7.00	13.00	0.00
	-48.00	-38.00	106.00	-50.00	-20.00	11.00	6.00
	-43.00	-35.00	156.00	29.00	-27.00	0.00	20.00
	-33.00	-7.00	137.00	43.00	-28.00	-1.00	39.00
	-29.00	25.00	104.00	35.00	2.00	0.00	32.00
	-24.00	42.00	38.00	5.00	13.00	-4.00	10.00
	2.00	35.00	-132.00	47.00	22.00	3.00	9.00
	7.00	32.00	-106.00	46.00	13.00	17.00	14.00
	17.00	46.00	81.00	-2.00	14.00	27.00	24.00
	28.00	26.00	300.00	-95.00	17.00	32.00	6.00
	23.00	27.00	241.00	-164.00	8.00	31.00	-11.00
	7.00	39.00	63.00	-97.00	2.00	29.00	-7.00
	-1.00	29.00	-82.00	-11.00	1.00	10.00	12.00
	-12.00	27.00	-135.00	80.00	7.00	-7.00	21.00
	-25.00	30.00	-167.00	155.00	17.00	-15.00	10.00
	-36.00	19.00	-137.00	209.00	17.00	-4.00	4.00
	-41.00	18.00	-34.00	161.00	22.00	7.00	-4.00
	-40.00	2.00	-21.00	86.00	20.00	5.00	0.00
	-33.00	-8.00	-62.00	-11.00	23.00	-2.00	8.00
	-24.00	-1.00	-127.00	-10.00	39.00	-6.00	4.00
	-3.00	38.00	-75.00	-35.00	65.00	0.00	3.00
	8.00	17.00	7.00	-54.00	60.00	25.00	-5.00
	14.00	6.00	40.00	-45.00	36.00	22.00	-3.00
	24.00	16.00	52.00	2.00	25.00	8.00	-23.00
	13.00	18.00	-86.00	16.00	16.00	9.00	-14.00
	12.00	-4.00	-114.00	-15.00	-4.00	2.00	-30.00
	8.00	-10.00	-55.00	-53.00	-10.00	-10.00	-19.00
	-17.00	28.00	25.00	-82.00	-3.00	-41.00	5.00
	-10.00	22.00	84.00	-53.00	-14.00	-22.00	0.00
	-2.00	10.00	87.00	-49.00	-31.00	0.00	-7.00
	10.00	0.00	60.00	-62.00	-31.00	7.00	-4.00
	3.00	7.00	-18.00	-43.00	-21.00	6.00	8.00
	27.00	7.00	-66.00	4.00	-4.00	10.00	20.00
	23.00	26.00	-96.00	27.00	-5.00	21.00	25.00
	24.00	19.00	-92.00	22.00	-5.00	23.00	14.00
	15.00	37.00	-62.00	85.00	-2.00	28.00	15.00
	7.00	64.00	-34.00	148.00	-1.00	25.00	15.00
	-6.00	48.00	-12.00	106.00	6.00	6.00	-9.00
	-28.00	24.00	67.00	48.00	22.00	9.00	-31.00
	-43.00	10.00	85.00	11.00	30.00	14.00	-42.00
	-28.00	9.00	89.00	32.00	29.00	14.00	-20.00
	-23.00	3.00	52.00	18.00	26.00	5.00	-19.00
	-19.00	-11.00	-92.00	51.00	31.00	0.00	-8.00
	-12.00	-15.00	-111.00	85.00	37.00	-3.00	-13.00
	-6.00	12.00	-22.00	63.00	30.00	8.00	6.00
	-1.00	42.00	54.00	-4.00	9.00	10.00	-9.00
	1.00	17.00	74.00	-71.00	11.00	-3.00	6.00
	6.00	-5.00	152.00	-137.00	37.00	-17.00	14.00
	11.00	-7.00	132.00	-164.00	38.00	-11.00	15.00
	16.00	-44.00	-5.00	-126.00	23.00	0.00	22.00
	16.00	-56.00	-84.00	-46.00	15.00	7.00	-3.00
	19.00	-5.00	-31.00	0.00	6.00	9.00	-7.00
	9.00	47.00	103.00	15.00	20.00	21.00	-8.00
	6.00	44.00	198.00	-17.00	13.00	21.00	-27.00
	12.00	19.00	132.00	-14.00	0.00	17.00	-2.00
	5.00	11.00	-40.00	-41.00	-14.00	6.00	31.00
	-16.00	19.00	-200.00	-12.00	-22.00	-9.00	37.00
	-30.00	-12.00	-273.00	35.00	-16.00	-15.00	14.00
	-39.00	-23.00	-133.00	20.00	-15.00	-20.00	28.00
	-36.00	-15.00	52.00	38.00	-6.00	11.00	26.00
	-26.00	-3.00	80.00	37.00	-2.00	30.00	-12.00
	-15.00	6.00	37.00	-25.00	1.00	32.00	-32.00
	1.00	25.00	47.00	23.00	6.00	25.00	-42.00
	12.00	41.00	70.00	43.00	10.00	13.00	-36.00
	16.00	48.00	218.00	48.00	15.00	-28.00	-25.00
	13.00	33.00	190.00	74.00	11.00	-31.00	-21.00
	10.00	-1.00	131.00	99.00	18.00	-5.00	-3.00
	-16.00	-4.00	102.00	104.00	31.00	6.00	2.00
	-15.00	11.00	15.00	-3.00	16.00	8.00	9.00
	-13.00	33.00	-123.00	-58.00	14.00	18.00	24.00
	-26.00	43.00	-24.00	-112.00	49.00	18.00	31.00
	-33.00	35.00	57.00	-105.00	49.00	19.00	27.00
	-26.00	-1.00	40.00	-51.00	33.00	18.00	25.00
	-18.00	-11.00	-71.00	6.00	16.00	9.00	14.00
	-13.00	-22.00	-160.00	97.00	1.00	1.00	-23.00
	-17.00	-2.00	-227.00	125.00	-13.00	0.00	-43.00
	1.00	19.00	-215.00	85.00	-24.00	6.00	-34.00
	14.00	30.00	-205.00	46.00	-20.00	8.00	-14.00
	12.00	18.00	-115.00	19.00	1.00	2.00	0.00
	10.00	-1.00	19.00	-37.00	10.00	-3.00	11.00
	11.00	-25.00	33.00	-100.00	26.00	15.00	10.00
	1.00	-17.00	-15.00	-88.00	32.00	21.00	9.00
	-9.00	11.00	43.00	-87.00	24.00	8.00	13.00
	8.00	34.00	67.00	-28.00	22.00	6.00	-7.00
	10.00	7.00	0.00	33.00	11.00	12.00	-11.00
	13.00	-16.00	4.00	49.00	7.00	15.00	0.00
	8.00	9.00	2.00	72.00	-10.00	2.00	-2.00
	13.00	22.00	-15.00	30.00	-19.00	-6.00	-4.00
	11.00	31.00	50.00	13.00	-33.00	-2.00	5.00
	4.00	30.00	108.00	5.00	-44.00	11.00	26.00
	10.00	9.00	217.00	-21.00	-39.00	5.00	38.00
	0.00	-15.00	283.00	-26.00	-24.00	-5.00	40.00
	-1.00	-12.00	159.00	-13.00	-18.00	5.00	33.00
	-15.00	8.00	21.00	-77.00	0.00	16.00	22.00
	-23.00	27.00	-101.00	-92.00	14.00	26.00	8.00
	-18.00	27.00	-111.00	-23.00	19.00	26.00	-19.00
	-27.00	41.00	-153.00	66.00	35.00	1.00	-30.00
	-25.00	37.00	-133.00	131.00	42.00	-6.00	-9.00
	-27.00	31.00	-184.00	149.00	45.00	-3.00	-12.00
	-11.00	14.00	-131.00	64.00	47.00	6.00	-28.00
	-14.00	7.00	-90.00	-10.00	47.00	3.00	-44.00
	-14.00	-6.00	2.00	-50.00	35.00	2.00	-39.00
	-1.00	-15.00	55.00	-45.00	31.00	5.00	-19.00
	1.00	-3.00	57.00	-63.00	38.00	8.00	-6.00
	2.00	16.00	56.00	-19.00	39.00	7.00	6.00
	1.00	22.00	-1.00	21.00	29.00	4.00	4.00
	15.00	33.00	-9.00	36.00	25.00	2.00	16.00
	24.00	35.00	-121.00	103.00	22.00	1.00	29.00
	25.00	25.00	-294.00	130.00	13.00	-7.00	44.00
	22.00	13.00	-223.00	48.00	0.00	-16.00	26.00
	12.00	15.00	-133.00	71.00	-7.00	-3.00	13.00
	-6.00	27.00	-55.00	78.00	-14.00	-5.00	-4.00
	-19.00	28.00	151.00	1.00	-14.00	0.00	-22.00
	-28.00	31.00	217.00	-51.00	-21.00	-4.00	-38.00
	-25.00	12.00	247.00	-96.00	-26.00	-8.00	-37.00
	-31.00	-6.00	344.00	-185.00	-16.00	-8.00	-34.00
	-26.00	-9.00	293.00	-143.00	-7.00	13.00	-7.00
	-15.00	9.00	136.00	-46.00	-1.00	34.00	1.00
	-17.00	21.00	4.00	14.00	0.00	48.00	-5.00
	-17.00	24.00	-21.00	50.00	22.00	40.00	-15.00
	-24.00	31.00	-17.00	48.00	20.00	4.00	-8.00
	-15.00	43.00	22.00	17.00	17.00	-8.00	0.00
	-20.00	43.00	55.00	-20.00	10.00	5.00	2.00
	-7.00	-4.00	79.00	-15.00	0.00	6.00	6.00
	12.00	-34.00	61.00	21.00	-11.00	7.00	7.00
	10.00	-28.00	-13.00	17.00	-20.00	8.00	9.00
	22.00	-31.00	-55.00	47.00	-19.00	15.00	13.00
	30.00	-18.00	-94.00	106.00	-10.00	9.00	30.00
	38.00	12.00	-128.00	51.00	-7.00	4.00	34.00
	44.00	15.00	-120.00	56.00	19.00	13.00	29.00
	32.00	12.00	-94.00	47.00	33.00	19.00	4.00
	23.00	16.00	-58.00	-29.00	24.00	24.00	0.00
	14.00	10.00	79.00	-47.00	23.00	21.00	-21.00
	2.00	47.00	157.00	-3.00	16.00	21.00	-20.00
	-14.00	49.00	82.00	-22.00	16.00	19.00	-26.00
	-16.00	50.00	46.00	-22.00	7.00	-7.00	-12.00
	-24.00	25.00	6.00	-31.00	0.00	-6.00	-3.00
	-43.00	21.00	-127.00	-66.00	5.00	-10.00	1.00
	-39.00	1.00	-208.00	-33.00	14.00	-8.00	-1.00
	-21.00	-41.00	-170.00	-29.00	20.00	-2.00	3.00
	-1.00	-61.00	-31.00	-49.00	17.00	-1.00	7.00
	3.00	-42.00	65.00	-18.00	9.00	1.00	3.00
	17.00	-1.00	94.00	20.00	24.00	5.00	8.00
	30.00	29.00	88.00	-12.00	29.00	11.00	15.00
	15.00	38.00	24.00	-55.00	23.00	14.00	2.00
	-1.00	11.00	-111.00	-55.00	15.00	17.00	24.00
	-12.00	-7.00	-176.00	-17.00	6.00	30.00	51.00
	-13.00	4.00	-77.00	-2.00	-9.00	24.00	45.00
	-12.00	10.00	-4.00	42.00	2.00	12.00	49.00
	-8.00	11.00	142.00	69.00	45.00	-11.00	12.00
	-3.00	50.00	119.00	98.00	77.00	-38.00	-40.00
	-10.00	57.00	22.00	97.00	61.00	-4.00	-75.00
	-1.00	51.00	-124.00	73.00	33.00	10.00	-76.00
	7.00	60.00	-150.00	64.00	15.00	8.00	-48.00
	16.00	15.00	-161.00	-10.00	-2.00	-4.00	-22.00
	18.00	-21.00	-141.00	-15.00	-20.00	-21.00	8.00
	5.00	-26.00	-58.00	25.00	-26.00	-16.00	9.00
	-6.00	-13.00	109.00	7.00	-34.00	-21.00	12.00
	-10.00	6.00	204.00	5.00	-36.00	-9.00	10.00
	-18.00	14.00	173.00	-5.00	-36.00	5.00	8.00
	-14.00	13.00	121.00	-23.00	-30.00	15.00	9.00
	-4.00	-1.00	91.00	-44.00	-27.00	19.00	15.00
	-17.00	2.00	66.00	-45.00	-9.00	16.00	9.00
	-24.00	-8.00	2.00	-110.00	0.00	18.00	2.00
	-8.00	15.00	-54.00	-33.00	5.00	22.00	-1.00
	-12.00	26.00	-43.00	19.00	13.00	9.00	-40.00
	-13.00	4.00	-18.00	10.00	16.00	1.00	-42.00
	-5.00	-5.00	52.00	2.00	17.00	9.00	-35.00
	1.00	39.00	0.00	44.00	26.00	17.00	-30.00
	0.00	66.00	-73.00	26.00	24.00	24.00	4.00
	4.00	49.00	53.00	65.00	22.00	28.00	4.00
	7.00	25.00	141.00	84.00	14.00	19.00	-8.00
	5.00	-15.00	62.00	19.00	7.00	15.00	4.00
	4.00	-22.00	12.00	52.00	11.00	10.00	8.00
	3.00	-7.00	3.00	28.00	15.00	-16.00	18.00
	-8.00	27.00	-7.00	21.00	9.00	-15.00	25.00
	-14.00	18.00	44.00	46.00	14.00	-5.00	24.00
	-21.00	9.00	176.00	19.00	16.00	15.00	22.00
	-28.00	18.00	113.00	-20.00	20.00	10.00	5.00
	-26.00	31.00	16.00	11.00	21.00	-2.00	8.00
	-22.00	57.00	-87.00	0.00	13.00	2.00	15.00
	-9.00	23.00	-153.00	17.00	3.00	0.00	24.00
	-11.00	-9.00	-117.00	34.00	65.00	2.00	22.00
	4.00	10.00	61.00	40.00	116.00	2.00	15.00
	26.00	50.00	42.00	22.00	106.00	6.00	11.00
	38.00	85.00	-15.00	-33.00	64.00	12.00	-2.00
	37.00	47.00	-85.00	-38.00	8.00	12.00	-35.00
	32.00	-2.00	-281.00	-22.00	-30.00	6.00	-30.00
	17.00	-25.00	-396.00	-12.00	-64.00	0.00	-5.00
	10.00	-20.00	-332.00	29.00	-75.00	-5.00	5.00
	15.00	14.00	-167.00	4.00	-84.00	-5.00	-13.00
	8.00	-7.00	-48.00	-33.00	-71.00	0.00	-28.00
	-9.00	-18.00	9.00	-60.00	-50.00	11.00	-35.00
	-13.00	-11.00	237.00	-90.00	-35.00	-3.00	-25.00
	-21.00	-21.00	235.00	-25.00	-23.00	8.00	-1.00
	-12.00	-33.00	149.00	35.00	-18.00	19.00	9.00
	-14.00	-28.00	204.00	89.00	-13.00	27.00	23.00
	-15.00	-20.00	283.00	48.00	33.00	18.00	29.00
	-21.00	-2.00	208.00	28.00	75.00	5.00	25.00
	-40.00	6.00	124.00	-59.00	91.00	0.00	9.00
	-34.00	-8.00	22.00	-125.00	90.00	-1.00	-2.00
	-22.00	-13.00	-74.00	-221.00	56.00	1.00	-20.00
	-24.00	-23.00	-169.00	-190.00	26.00	8.00	-26.00
	-19.00	-18.00	-141.00	-113.00	7.00	6.00	-25.00
	-21.00	-1.00	-179.00	5.00	-5.00	11.00	-26.00
	-11.00	38.00	-168.00	67.00	-23.00	12.00	-14.00
	3.00	65.00	-89.00	132.00	-32.00	-3.00	2.00
	16.00	29.00	-77.00	183.00	-29.00	7.00	5.00
	23.00	19.00	-12.00	126.00	-18.00	8.00	5.00
	19.00	10.00	142.00	72.00	-6.00	1.00	8.00
	14.00	14.00	183.00	80.00	9.00	3.00	17.00
	14.00	8.00	205.00	60.00	5.00	4.00	20.00
	2.00	7.00	130.00	32.00	0.00	-1.00	21.00
	-3.00	16.00	38.00	35.00	12.00	5.00	15.00
	-4.00	16.00	-8.00	-26.00	37.00	4.00	-1.00
	-3.00	8.00	-29.00	-83.00	60.00	7.00	-7.00
	1.00	1.00	-17.00	-92.00	46.00	22.00	-11.00
	-14.00	38.00	-77.00	-118.00	24.00	30.00	-14.00
	-26.00	57.00	-6.00	-94.00	8.00	36.00	-7.00
	-17.00	51.00	25.00	9.00	-2.00	31.00	9.00
	-15.00	20.00	86.00	68.00	-9.00	28.00	9.00
	-27.00	28.00	191.00	115.00	-5.00	20.00	7.00
	2.00	54.00	200.00	112.00	-2.00	-1.00	-6.00
	13.00	84.00	59.00	72.00	8.00	-19.00	-20.00
	9.00	64.00	-136.00	6.00	33.00	-26.00	-24.00
	23.00	25.00	-257.00	16.00	52.00	-26.00	-5.00
	38.00	-7.00	-218.00	-10.00	49.00	-16.00	14.00
	32.00	-20.00	-207.00	12.00	27.00	-2.00	9.00
	32.00	-49.00	-163.00	27.00	15.00	11.00	11.00
	31.00	-37.00	-88.00	-25.00	20.00	23.00	6.00
	20.00	-14.00	-63.00	-61.00	25.00	27.00	6.00
	-7.00	28.00	-107.00	-35.00	18.00	22.00	-16.00
	-33.00	48.00	-102.00	0.00	8.00	-10.00	-28.00
	-44.00	83.00	-38.00	31.00	46.00	-30.00	-21.00
	-32.00	58.00	58.00	64.00	40.00	1.00	-11.00
	-31.00	20.00	161.00	57.00	7.00	12.00	-1.00
	-44.00	10.00	261.00	64.00	-18.00	15.00	3.00
	-49.00	-12.00	260.00	57.00	-33.00	19.00	-7.00
	-49.00	10.00	218.00	75.00	-49.00	12.00	5.00
	-52.00	2.00	190.00	16.00	-56.00	6.00	7.00
	-52.00	-7.00	152.00	-102.00	-56.00	-15.00	7.00
	-43.00	-22.00	47.00	-167.00	-35.00	-11.00	3.00
	-18.00	-36.00	-20.00	-78.00	-17.00	-3.00	12.00
	-2.00	-40.00	-55.00	-41.00	-1.00	7.00	21.00
	5.00	-10.00	63.00	-12.00	11.00	15.00	20.00
	15.00	19.00	150.00	6.00	14.00	18.00	9.00
	35.00	60.00	-71.00	-45.00	22.00	9.00	11.00
	45.00	22.00	-256.00	-63.00	27.00	-1.00	7.00
	57.00	-1.00	-309.00	-3.00	29.00	-2.00	-5.00
	54.00	-21.00	-421.00	32.00	39.00	-8.00	-11.00
	33.00	-32.00	-393.00	119.00	42.00	-17.00	-25.00
	13.00	2.00	-20.00	124.00	43.00	-14.00	-30.00
	7.00	8.00	164.00	45.00	38.00	2.00	-1.00
	-1.00	-10.00	193.00	-28.00	15.00	9.00	11.00
	-7.00	-28.00	235.00	-17.00	9.00	22.00	20.00
	-4.00	9.00	211.00	-18.00	8.00	25.00	2.00
	-18.00	27.00	84.00	-7.00	11.00	30.00	-7.00
	-25.00	27.00	56.00	-27.00	7.00	27.00	-15.00
	-33.00	-2.00	-1.00	-27.00	0.00	27.00	-16.00
	-28.00	-1.00	-69.00	-41.00	0.00	12.00	-23.00
	-19.00	1.00	-127.00	0.00	9.00	-8.00	-9.00
	-9.00	8.00	-58.00	12.00	20.00	-48.00	11.00
	8.00	21.00	-36.00	34.00	7.00	-6.00	-6.00
	15.00	31.00	-10.00	38.00	4.00	1.00	-15.00
	25.00	39.00	-28.00	39.00	8.00	16.00	-3.00
	7.00	48.00	-68.00	29.00	16.00	17.00	8.00
	-5.00	35.00	-125.00	32.00	13.00	17.00	9.00
	-19.00	25.00	-69.00	9.00	21.00	15.00	17.00
	-20.00	23.00	-7.00	-30.00	17.00	7.00	16.00
	-10.00	17.00	113.00	-38.00	17.00	8.00	8.00
	-3.00	14.00	190.00	-5.00	14.00	21.00	7.00
	1.00	8.00	246.00	18.00	10.00	21.00	12.00
	4.00	15.00	240.00	11.00	4.00	4.00	-8.00
	15.00	32.00	125.00	23.00	4.00	10.00	-10.00
	9.00	34.00	-21.00	25.00	28.00	5.00	-10.00
	0.00	27.00	-99.00	37.00	74.00	-2.00	-13.00
	-10.00	25.00	-152.00	-6.00	67.00	1.00	-19.00
	-1.00	6.00	-161.00	11.00	42.00	4.00	-18.00
	1.00	2.00	-130.00	33.00	8.00	1.00	-21.00
	3.00	9.00	-148.00	20.00	-27.00	12.00	-31.00
	-2.00	6.00	-114.00	-10.00	-55.00	13.00	-23.00
	-4.00	14.00	-52.00	-24.00	-73.00	6.00	-8.00
	0.00	22.00	-67.00	-52.00	-72.00	-6.00	15.00
	2.00	2.00	-117.00	-26.00	-56.00	-6.00	23.00
	6.00	-4.00	18.00	-13.00	-41.00	5.00	20.00
	17.00	17.00	157.00	-60.00	-14.00	-2.00	9.00
	13.00	35.00	126.00	-43.00	17.00	-8.00	4.00
	7.00	64.00	88.00	-30.00	33.00	6.00	-1.00
	12.00	34.00	63.00	-31.00	33.00	13.00	-6.00
	11.00	21.00	-39.00	-27.00	48.00	9.00	-3.00
	2.00	8.00	-108.00	33.00	50.00	9.00	1.00
	-4.00	23.00	22.00	78.00	42.00	11.00	0.00
	-8.00	-9.00	150.00	65.00	49.00	16.00	8.00
	-12.00	-11.00	36.00	76.00	67.00	16.00	14.00
	-26.00	17.00	-28.00	-12.00	56.00	9.00	20.00
	-17.00	16.00	68.00	-50.00	45.00	10.00	19.00
	5.00	27.00	108.00	31.00	17.00	15.00	15.00
	-8.00	35.00	25.00	112.00	-8.00	8.00	17.00
	-18.00	20.00	-25.00	101.00	-11.00	-1.00	17.00
	-22.00	-15.00	-112.00	128.00	-23.00	-3.00	14.00
	-24.00	-20.00	-117.00	101.00	-35.00	-9.00	5.00
	-22.00	-23.00	-78.00	-39.00	-19.00	-6.00	-5.00
	-20.00	-53.00	-8.00	-90.00	-25.00	-9.00	-13.00
	-32.00	-46.00	41.00	-91.00	-6.00	4.00	-14.00
	-40.00	-34.00	76.00	-112.00	2.00	17.00	-12.00
	-47.00	-27.00	58.00	-82.00	3.00	24.00	-10.00
	-38.00	2.00	88.00	-11.00	-1.00	21.00	-2.00
	-29.00	24.00	123.00	18.00	0.00	2.00	2.00
	-7.00	32.00	99.00	69.00	11.00	-19.00	-1.00
	11.00	-8.00	85.00	132.00	24.00	-15.00	1.00
	34.00	-39.00	142.00	80.00	15.00	14.00	-3.00
	32.00	-20.00	210.00	-17.00	1.00	18.00	-16.00
	40.00	6.00	179.00	-60.00	-3.00	11.00	-2.00
	38.00	46.00	88.00	-64.00	5.00	23.00	9.00
	24.00	102.00	-118.00	-75.00	8.00	21.00	-11.00
	11.00	116.00	-279.00	-78.00	12.00	19.00	6.00
	-12.00	83.00	-277.00	-65.00	21.00	10.00	-4.00
	-29.00	58.00	-220.00	-8.00	27.00	10.00	1.00
	-46.00	21.00	-145.00	12.00	22.00	7.00	-3.00
	-50.00	-26.00	-118.00	50.00	13.00	-8.00	7.00
	-38.00	-61.00	-130.00	68.00	21.00	-8.00	3.00
	-28.00	-43.00	-72.00	11.00	21.00	-4.00	-19.00
	-19.00	-9.00	-86.00	-3.00	17.00	13.00	0.00
	6.00	6.00	29.00	-7.00	16.00	22.00	0.00
	30.00	21.00	84.00	-20.00	10.00	15.00	-15.00
	54.00	27.00	139.00	-14.00	8.00	20.00	-15.00
	58.00	6.00	180.00	-36.00	31.00	12.00	-11.00
	63.00	7.00	281.00	12.00	59.00	-31.00	-14.00
	42.00	10.00	171.00	44.00	55.00	1.00	-9.00
	28.00	13.00	26.00	-2.00	30.00	-1.00	-10.00
	0.00	33.00	-206.00	31.00	23.00	-11.00	-19.00
	-27.00	20.00	-265.00	47.00	5.00	-17.00	-11.00
	-40.00	-22.00	-244.00	40.00	3.00	-12.00	-2.00
	-48.00	-26.00	-187.00	-18.00	-12.00	0.00	-26.00
	-50.00	-9.00	-42.00	-46.00	-14.00	0.00	-33.00
	-55.00	7.00	26.00	-24.00	-16.00	11.00	-6.00
	-38.00	28.00	42.00	3.00	-12.00	16.00	8.00
	-25.00	25.00	47.00	9.00	-3.00	-17.00	15.00
	-21.00	-2.00	207.00	-4.00	8.00	-3.00	21.00
	-15.00	-9.00	299.00	-17.00	11.00	20.00	20.00
	-2.00	15.00	178.00	-39.00	4.00	25.00	18.00
	12.00	23.00	122.00	-77.00	0.00	23.00	7.00
	24.00	34.00	16.00	13.00	-7.00	19.00	-7.00
	29.00	24.00	-187.00	169.00	-18.00	-3.00	-6.00
	4.00	24.00	-140.00	196.00	-27.00	15.00	-3.00
	0.00	24.00	-82.00	108.00	-22.00	28.00	6.00
	-3.00	7.00	-65.00	67.00	4.00	14.00	11.00
	-9.00	13.00	-22.00	5.00	48.00	2.00	6.00
	-2.00	26.00	66.00	22.00	54.00	15.00	24.00
	6.00	40.00	124.00	17.00	38.00	15.00	27.00
	-4.00	60.00	105.00	-33.00	21.00	-3.00	19.00
	-8.00	27.00	27.00	-50.00	13.00	-14.00	7.00
	-2.00	3.00	-88.00	-33.00	-6.00	1.00	9.00
	5.00	9.00	-125.00	-5.00	-16.00	-2.00	-6.00
	6.00	-2.00	-122.00	15.00	-5.00	10.00	-11.00
	9.00	1.00	2.00	8.00	6.00	9.00	-19.00
	12.00	9.00	0.00	5.00	13.00	2.00	-20.00
	24.00	39.00	64.00	21.00	6.00	8.00	-12.00
	30.00	45.00	153.00	1.00	-5.00	18.00	-8.00
	23.00	43.00	146.00	-40.00	-16.00	12.00	-14.00
	18.00	42.00	63.00	-10.00	-11.00	8.00	-16.00
	17.00	6.00	-74.00	-12.00	6.00	1.00	-3.00
	5.00	-3.00	-122.00	-80.00	28.00	3.00	0.00
	-7.00	-1.00	-129.00	-74.00	29.00	5.00	12.00
	-20.00	-3.00	-66.00	-25.00	31.00	4.00	-19.00
	-15.00	-3.00	20.00	-4.00	27.00	-1.00	-3.00
	-12.00	-2.00	34.00	-2.00	21.00	3.00	0.00
	-1.00	-3.00	-144.00	-13.00	23.00	2.00	14.00
	5.00	-3.00	-127.00	-21.00	15.00	6.00	3.00
	17.00	-1.00	-48.00	-47.00	7.00	0.00	8.00
	10.00	4.00	-46.00	-72.00	15.00	13.00	-12.00
	7.00	16.00	-61.00	7.00	52.00	14.00	-10.00
	7.00	3.00	-5.00	78.00	57.00	3.00	-9.00
	3.00	53.00	26.00	64.00	66.00	2.00	-1.00
	-5.00	57.00	-49.00	26.00	76.00	5.00	-2.00
	-15.00	60.00	-84.00	2.00	69.00	5.00	-13.00
	-22.00	30.00	-78.00	-14.00	17.00	10.00	-14.00
	-27.00	8.00	-37.00	16.00	-27.00	6.00	6.00
	-31.00	1.00	-96.00	36.00	-60.00	-3.00	16.00
	-33.00	-12.00	16.00	7.00	-74.00	4.00	12.00
	-33.00	-21.00	200.00	-31.00	-74.00	2.00	8.00
	-19.00	-37.00	137.00	10.00	-63.00	-4.00	9.00
	-22.00	-48.00	142.00	39.00	-32.00	6.00	1.00
	-17.00	-33.00	185.00	-38.00	-26.00	16.00	-11.00
	7.00	19.00	179.00	-104.00	-29.00	17.00	9.00
	7.00	9.00	156.00	-59.00	-29.00	28.00	20.00
	13.00	11.00	117.00	-4.00	-13.00	28.00	7.00
	13.00	6.00	99.00	70.00	1.00	18.00	-25.00
	1.00	-15.00	92.00	162.00	18.00	7.00	-21.00
	-4.00	-7.00	44.00	165.00	27.00	9.00	-14.00
	-22.00	11.00	56.00	73.00	22.00	12.00	-7.00
	-27.00	5.00	71.00	-6.00	17.00	13.00	-24.00
	-32.00	11.00	27.00	-28.00	11.00	3.00	-32.00
	-27.00	14.00	-94.00	-9.00	21.00	-10.00	-20.00
	-29.00	3.00	-86.00	-3.00	23.00	-6.00	-9.00
	-18.00	0.00	-38.00	18.00	11.00	3.00	-5.00
	-18.00	19.00	2.00	-12.00	-2.00	2.00	8.00
	-17.00	24.00	-104.00	-13.00	7.00	-12.00	11.00
	-16.00	41.00	-139.00	40.00	9.00	3.00	4.00
	-12.00	42.00	-126.00	57.00	0.00	19.00	-12.00
	-8.00	41.00	-98.00	71.00	11.00	6.00	6.00
	-5.00	31.00	-50.00	72.00	21.00	0.00	16.00
	-4.00	-11.00	-24.00	26.00	19.00	-1.00	23.00
	-11.00	-3.00	23.00	-57.00	19.00	2.00	31.00
	-3.00	35.00	-16.00	-97.00	17.00	3.00	20.00
	8.00	22.00	-14.00	-96.00	14.00	2.00	-3.00
	28.00	30.00	-6.00	-51.00	25.00	11.00	-1.00
	37.00	26.00	33.00	-34.00	32.00	22.00	-13.00
	30.00	12.00	80.00	-26.00	43.00	18.00	-21.00
	19.00	1.00	109.00	9.00	85.00	-1.00	-23.00
	12.00	6.00	14.00	34.00	73.00	15.00	-23.00
	10.00	21.00	-49.00	36.00	50.00	28.00	-10.00
	8.00	22.00	-99.00	40.00	33.00	21.00	-2.00
	8.00	36.00	-191.00	21.00	18.00	-35.00	11.00
	-11.00	16.00	-165.00	-16.00	2.00	-31.00	19.00
	-16.00	17.00	-24.00	-33.00	-17.00	11.00	7.00
	-13.00	8.00	52.00	-34.00	-31.00	18.00	-3.00
	-5.00	-6.00	77.00	-25.00	-34.00	16.00	13.00
	-11.00	10.00	136.00	-61.00	-33.00	9.00	13.00
	-8.00	23.00	126.00	-51.00	-25.00	-5.00	7.00
	-8.00	11.00	36.00	-23.00	-14.00	-15.00	-13.00
	-20.00	14.00	-147.00	0.00	-2.00	-3.00	-18.00
	-13.00	-6.00	-152.00	-26.00	5.00	7.00	-12.00
	3.00	-6.00	-82.00	-37.00	15.00	3.00	-3.00
	2.00	-13.00	-3.00	-6.00	6.00	11.00	0.00
	19.00	-9.00	102.00	6.00	10.00	13.00	3.00
	23.00	-12.00	188.00	11.00	13.00	18.00	15.00
	27.00	-5.00	98.00	-3.00	11.00	5.00	21.00
	7.00	4.00	-8.00	-16.00	17.00	9.00	21.00
	4.00	2.00	-35.00	-16.00	27.00	-7.00	7.00
	12.00	-11.00	-141.00	58.00	19.00	-9.00	-11.00
	5.00	-18.00	-118.00	39.00	13.00	-8.00	-11.00
	7.00	-3.00	-57.00	51.00	24.00	-2.00	-6.00
	6.00	24.00	-84.00	74.00	54.00	5.00	-15.00
	16.00	24.00	18.00	31.00	43.00	8.00	-14.00
	18.00	29.00	101.00	-25.00	29.00	8.00	-5.00
	16.00	25.00	163.00	-20.00	13.00	13.00	12.00
	13.00	10.00	75.00	-25.00	-12.00	24.00	18.00
	8.00	-1.00	-15.00	-29.00	-28.00	14.00	18.00
	-8.00	27.00	-47.00	21.00	-41.00	3.00	5.00
	-16.00	41.00	36.00	102.00	-44.00	11.00	-7.00
	-15.00	36.00	129.00	97.00	-24.00	6.00	-28.00
	-35.00	23.00	91.00	96.00	-14.00	6.00	-27.00
	-27.00	-3.00	29.00	76.00	-18.00	8.00	-34.00
	-32.00	15.00	-62.00	30.00	-24.00	1.00	-32.00
	-24.00	28.00	-136.00	40.00	-19.00	-3.00	-30.00
	-24.00	30.00	-51.00	4.00	3.00	2.00	-16.00
	-39.00	34.00	29.00	-5.00	42.00	13.00	0.00
	-32.00	20.00	16.00	8.00	43.00	17.00	0.00
	-32.00	7.00	21.00	39.00	52.00	15.00	2.00
	-33.00	8.00	15.00	162.00	51.00	12.00	0.00
	-26.00	25.00	-9.00	138.00	39.00	18.00	0.00
	-14.00	27.00	-51.00	50.00	9.00	19.00	-1.00
	0.00	10.00	-38.00	18.00	-16.00	18.00	-1.00
	19.00	-2.00	-8.00	-80.00	-34.00	12.00	9.00
	39.00	7.00	-8.00	-166.00	-18.00	0.00	10.00
	28.00	30.00	-26.00	-129.00	23.00	7.00	20.00
	10.00	45.00	-29.00	-95.00	42.00	17.00	23.00
	9.00	45.00	-73.00	-94.00	39.00	17.00	24.00
	9.00	12.00	-61.00	-79.00	28.00	16.00	16.00
	1.00	10.00	-2.00	-50.00	32.00	9.00	13.00
	-5.00	-11.00	58.00	-70.00	31.00	0.00	7.00
	-19.00	-15.00	18.00	-26.00	17.00	-6.00	10.00
	-16.00	-8.00	22.00	10.00	12.00	-9.00	2.00
	-27.00	-22.00	124.00	101.00	16.00	1.00	11.00
	-22.00	-15.00	163.00	91.00	28.00	1.00	-2.00
	-17.00	-1.00	100.00	24.00	18.00	0.00	0.00
	-9.00	3.00	79.00	-37.00	6.00	5.00	22.00
	-12.00	8.00	72.00	-94.00	4.00	17.00	16.00
	-27.00	-4.00	19.00	-108.00	5.00	14.00	20.00
	-26.00	-17.00	-65.00	-39.00	2.00	4.00	-13.00
	-21.00	6.00	-51.00	7.00	-11.00	1.00	-27.00
	-23.00	26.00	-105.00	29.00	-15.00	-8.00	-39.00
	-19.00	21.00	-88.00	18.00	10.00	-15.00	-47.00
	-17.00	4.00	-74.00	-39.00	16.00	-3.00	-39.00
	-7.00	-7.00	-30.00	-8.00	9.00	7.00	-42.00
	4.00	1.00	22.00	61.00	-7.00	18.00	-24.00
	13.00	26.00	103.00	86.00	-8.00	1.00	-1.00
	22.00	28.00	118.00	63.00	8.00	-23.00	0.00
	21.00	53.00	65.00	6.00	19.00	5.00	-5.00
	21.00	91.00	71.00	-44.00	26.00	24.00	12.00
	21.00	56.00	-24.00	6.00	23.00	21.00	0.00
	25.00	29.00	6.00	3.00	19.00	17.00	3.00
	31.00	-10.00	58.00	-3.00	9.00	10.00	0.00
	13.00	-45.00	-29.00	-15.00	3.00	15.00	10.00
	7.00	-32.00	-61.00	-105.00	-3.00	1.00	25.00
	-2.00	3.00	-123.00	-133.00	-11.00	-4.00	18.00
	-11.00	25.00	-214.00	-69.00	-14.00	3.00	24.00
	-10.00	38.00	-230.00	50.00	-16.00	1.00	22.00
	-5.00	35.00	-94.00	183.00	-3.00	-3.00	14.00
	-16.00	20.00	1.00	219.00	0.00	7.00	5.00
	-20.00	-6.00	44.00	149.00	0.00	-6.00	-3.00
	-9.00	0.00	44.00	90.00	17.00	-12.00	-14.00
	-1.00	10.00	80.00	26.00	21.00	3.00	-25.00
	-2.00	23.00	41.00	21.00	52.00	12.00	-16.00
	-5.00	34.00	1.00	37.00	53.00	19.00	-14.00
	-7.00	29.00	-11.00	45.00	39.00	-25.00	-8.00
	-1.00	28.00	-16.00	44.00	19.00	-18.00	-2.00
	7.00	23.00	22.00	31.00	-9.00	12.00	-23.00
	12.00	28.00	76.00	-11.00	-4.00	20.00	-16.00
	18.00	26.00	59.00	-28.00	-5.00	30.00	1.00
	35.00	6.00	33.00	17.00	-15.00	28.00	9.00
	43.00	46.00	-139.00	8.00	36.00	3.00	10.00
	47.00	39.00	-282.00	19.00	64.00	0.00	9.00
	53.00	31.00	-287.00	17.00	50.00	0.00	14.00
	42.00	14.00	-190.00	3.00	14.00	7.00	15.00
	28.00	-34.00	-55.00	0.00	-14.00	14.00	12.00
	8.00	-55.00	153.00	-58.00	-41.00	15.00	19.00
	-17.00	-54.00	272.00	-92.00	-58.00	16.00	24.00
	-27.00	-34.00	340.00	-95.00	-60.00	19.00	37.00
	-44.00	-24.00	335.00	-74.00	-60.00	14.00	2.00
	-57.00	-22.00	246.00	-52.00	-50.00	10.00	-23.00
	-60.00	-13.00	90.00	-15.00	-33.00	12.00	-23.00
	-59.00	2.00	-36.00	-11.00	-8.00	5.00	-13.00
	-39.00	-5.00	-171.00	-18.00	7.00	-10.00	-24.00
	-19.00	29.00	-172.00	-35.00	37.00	-5.00	-31.00
	-2.00	69.00	7.00	-79.00	70.00	14.00	-64.00
	4.00	54.00	-6.00	-58.00	81.00	20.00	-56.00
	9.00	28.00	-144.00	66.00	70.00	22.00	-23.00
	17.00	31.00	-54.00	78.00	44.00	12.00	-6.00
	10.00	47.00	-35.00	83.00	25.00	-1.00	8.00
	14.00	10.00	-5.00	57.00	19.00	-12.00	11.00
	-16.00	-15.00	202.00	-25.00	19.00	-5.00	8.00
	-23.00	-22.00	209.00	-56.00	10.00	-9.00	10.00
	-19.00	-14.00	43.00	-9.00	13.00	-9.00	11.00
	-12.00	-31.00	45.00	21.00	11.00	0.00	3.00
	-17.00	-20.00	51.00	13.00	9.00	5.00	-2.00
	-21.00	0.00	55.00	-5.00	8.00	6.00	9.00
	-21.00	38.00	68.00	-22.00	9.00	15.00	18.00
	-14.00	70.00	116.00	-85.00	21.00	24.00	20.00
	-20.00	50.00	60.00	-52.00	28.00	28.00	15.00
	-10.00	27.00	-18.00	-38.00	17.00	31.00	22.00
	-15.00	13.00	-96.00	48.00	17.00	20.00	30.00
	-16.00	0.00	-92.00	183.00	19.00	7.00	14.00
	-27.00	-9.00	-106.00	166.00	22.00	-9.00	11.00
	-31.00	61.00	-85.00	73.00	24.00	3.00	9.00
	-25.00	54.00	-82.00	-25.00	8.00	5.00	3.00
	-3.00	29.00	-124.00	-79.00	0.00	-3.00	-23.00
	15.00	14.00	-318.00	-33.00	10.00	4.00	-30.00
	26.00	8.00	-322.00	-45.00	11.00	8.00	-25.00
	26.00	-6.00	-116.00	-35.00	42.00	17.00	-22.00
	33.00	-4.00	13.00	-34.00	44.00	9.00	-10.00
	25.00	6.00	83.00	15.00	30.00	0.00	-4.00
	9.00	10.00	124.00	18.00	5.00	-1.00	-14.00
	-1.00	-12.00	57.00	82.00	-9.00	-17.00	-5.00
	2.00	-12.00	5.00	115.00	-19.00	-29.00	0.00
	-9.00	-10.00	67.00	55.00	-19.00	-25.00	2.00
	-30.00	0.00	78.00	-2.00	-16.00	-13.00	3.00
	-29.00	8.00	95.00	41.00	-21.00	10.00	7.00
	-20.00	-15.00	134.00	40.00	-10.00	15.00	13.00
	-8.00	0.00	127.00	-19.00	-2.00	16.00	28.00
	-11.00	13.00	136.00	-9.00	23.00	13.00	35.00
	-3.00	23.00	155.00	-8.00	49.00	10.00	36.00
	7.00	14.00	13.00	-7.00	39.00	3.00	31.00
	2.00	20.00	-191.00	-5.00	26.00	6.00	19.00
	13.00	52.00	-189.00	7.00	9.00	9.00	-8.00
	28.00	63.00	-200.00	35.00	3.00	6.00	-54.00
	13.00	21.00	-166.00	9.00	-13.00	4.00	-48.00
	18.00	22.00	-37.00	1.00	-27.00	-2.00	-29.00
	35.00	-10.00	113.00	-16.00	-18.00	4.00	-28.00
	30.00	-42.00	246.00	-69.00	-17.00	14.00	6.00
	19.00	-5.00	194.00	-127.00	-23.00	7.00	14.00
	3.00	24.00	71.00	-91.00	-11.00	8.00	-10.00
	-4.00	22.00	0.00	-85.00	-5.00	15.00	-39.00
	-9.00	0.00	-142.00	-26.00	3.00	16.00	-45.00
	-19.00	-15.00	-96.00	69.00	0.00	13.00	-63.00
	-16.00	-9.00	-123.00	74.00	9.00	10.00	-50.00
	-26.00	19.00	-95.00	36.00	20.00	10.00	-6.00
	-11.00	57.00	22.00	21.00	32.00	14.00	17.00
	-15.00	34.00	81.00	-34.00	34.00	17.00	27.00
	-11.00	-13.00	100.00	-47.00	36.00	8.00	29.00
	-4.00	-15.00	125.00	3.00	26.00	11.00	33.00
	-1.00	-10.00	54.00	37.00	18.00	0.00	20.00
	-8.00	-8.00	-65.00	84.00	18.00	-16.00	12.00
	2.00	22.00	-21.00	96.00	16.00	-1.00	10.00
	1.00	9.00	-6.00	31.00	8.00	1.00	10.00
	13.00	17.00	-82.00	4.00	17.00	3.00	3.00
	24.00	43.00	-40.00	-15.00	13.00	29.00	-1.00
	20.00	56.00	13.00	-71.00	15.00	32.00	3.00
	33.00	23.00	-32.00	0.00	31.00	27.00	5.00
	25.00	-33.00	-59.00	32.00	66.00	27.00	10.00
	18.00	-41.00	-18.00	-29.00	61.00	17.00	9.00
	5.00	-42.00	54.00	-81.00	38.00	16.00	8.00
	1.00	-28.00	79.00	-77.00	10.00	-4.00	4.00
	-4.00	26.00	75.00	-44.00	-25.00	-31.00	4.00
	-22.00	60.00	-42.00	54.00	-49.00	-6.00	4.00
	-24.00	44.00	-115.00	135.00	-56.00	-10.00	-1.00
	-34.00	42.00	-43.00	164.00	-44.00	-1.00	-3.00
	-47.00	39.00	-17.00	67.00	-36.00	-4.00	3.00
	-48.00	52.00	-63.00	-27.00	-20.00	-7.00	23.00
	-57.00	48.00	-40.00	-17.00	-13.00	-16.00	21.00
	-61.00	25.00	16.00	26.00	-5.00	-17.00	16.00
	-57.00	17.00	64.00	29.00	8.00	-10.00	6.00
	-44.00	11.00	172.00	9.00	7.00	6.00	3.00
	-39.00	1.00	218.00	49.00	13.00	26.00	-3.00
	-35.00	0.00	193.00	19.00	38.00	24.00	-12.00
	-28.00	-6.00	89.00	-27.00	48.00	14.00	-16.00
	-21.00	-5.00	-41.00	-46.00	54.00	6.00	-20.00
	-28.00	-7.00	-18.00	-26.00	43.00	13.00	-15.00
	-31.00	23.00	-37.00	-8.00	30.00	16.00	-6.00
	-18.00	26.00	-166.00	-8.00	25.00	23.00	-2.00
	-5.00	44.00	-187.00	30.00	4.00	24.00	-8.00
	4.00	57.00	-173.00	-43.00	-18.00	8.00	-21.00
	26.00	30.00	-226.00	-9.00	-16.00	-13.00	-20.00
	34.00	6.00	-157.00	21.00	-3.00	-10.00	-20.00
	31.00	-21.00	4.00	-39.00	-16.00	6.00	-23.00
	21.00	-7.00	57.00	-59.00	-27.00	4.00	-18.00
	17.00	3.00	190.00	-43.00	-20.00	5.00	-7.00
	10.00	38.00	231.00	-23.00	-24.00	7.00	0.00
	-6.00	16.00	218.00	11.00	-18.00	-12.00	8.00
	-19.00	4.00	258.00	19.00	-6.00	-11.00	10.00
	-34.00	15.00	169.00	53.00	7.00	2.00	10.00
	-39.00	26.00	74.00	28.00	37.00	18.00	0.00
	-30.00	18.00	3.00	20.00	42.00	28.00	12.00
	-15.00	15.00	-112.00	-6.00	38.00	14.00	8.00
	-9.00	24.00	-199.00	-6.00	48.00	16.00	3.00
	-4.00	34.00	-59.00	-39.00	39.00	14.00	9.00
	18.00	33.00	68.00	-61.00	21.00	2.00	14.00
	30.00	32.00	146.00	-18.00	8.00	-3.00	7.00
	25.00	32.00	209.00	52.00	2.00	21.00	42.00
	24.00	19.00	104.00	21.00	-6.00	18.00	31.00
	35.00	36.00	-86.00	22.00	4.00	0.00	42.00
	37.00	25.00	-195.00	46.00	10.00	5.00	34.00
	37.00	-15.00	-290.00	47.00	5.00	2.00	10.00
	53.00	-31.00	-239.00	36.00	18.00	-3.00	-26.00
	52.00	-38.00	-228.00	69.00	24.00	6.00	-46.00
	44.00	-25.00	-123.00	36.00	22.00	8.00	-54.00
	47.00	-28.00	-25.00	-19.00	11.00	10.00	-46.00
	44.00	-52.00	-22.00	-48.00	9.00	1.00	-33.00
	35.00	-64.00	-12.00	-59.00	19.00	3.00	-9.00
	30.00	-44.00	-53.00	-187.00	10.00	8.00	-11.00
	26.00	9.00	-157.00	-105.00	13.00	20.00	-7.00
	21.00	44.00	-122.00	-21.00	22.00	12.00	-2.00
	24.00	43.00	-71.00	41.00	26.00	10.00	-6.00
	24.00	35.00	-30.00	127.00	46.00	7.00	-13.00
	26.00	17.00	52.00	122.00	36.00	3.00	-5.00
	20.00	-11.00	100.00	43.00	35.00	-5.00	7.00
	3.00	-28.00	114.00	-9.00	27.00	-8.00	32.00
	0.00	-16.00	144.00	-12.00	5.00	-2.00	51.00
	-20.00	22.00	189.00	-7.00	2.00	6.00	51.00
	-25.00	9.00	188.00	7.00	-3.00	18.00	54.00
	-26.00	0.00	109.00	9.00	-20.00	15.00	33.00
	-33.00	-3.00	51.00	26.00	-26.00	9.00	-22.00
	-36.00	17.00	-42.00	15.00	-25.00	5.00	-32.00
	-28.00	39.00	-182.00	21.00	-26.00	4.00	-49.00
	-14.00	39.00	-222.00	16.00	-22.00	2.00	-34.00
	-6.00	22.00	-97.00	-5.00	9.00	1.00	-6.00
	-14.00	30.00	-1.00	37.00	7.00	1.00	0.00
	-21.00	16.00	150.00	50.00	7.00	5.00	24.00
	-30.00	20.00	251.00	8.00	10.00	9.00	2.00
	-36.00	34.00	267.00	10.00	6.00	11.00	-20.00
	-39.00	40.00	238.00	1.00	-1.00	6.00	-24.00
	-34.00	39.00	203.00	-41.00	-15.00	4.00	-16.00
	-31.00	26.00	93.00	-26.00	-19.00	4.00	-7.00
	-32.00	14.00	-22.00	36.00	-1.00	14.00	-5.00
	-36.00	14.00	-128.00	89.00	0.00	18.00	-12.00
	-36.00	14.00	-123.00	90.00	6.00	18.00	-11.00
	-22.00	4.00	-90.00	81.00	17.00	21.00	-8.00
	-15.00	31.00	-238.00	127.00	23.00	19.00	-4.00
	-8.00	71.00	-393.00	140.00	67.00	19.00	5.00
	-5.00	67.00	-399.00	17.00	87.00	-5.00	22.00
	-5.00	30.00	-292.00	-48.00	76.00	-23.00	29.00
	-16.00	-6.00	-169.00	-88.00	44.00	-14.00	20.00
	-27.00	-22.00	117.00	-138.00	24.00	0.00	10.00
	-18.00	-53.00	321.00	-144.00	-4.00	1.00	-6.00
	-11.00	-55.00	358.00	-125.00	-35.00	4.00	-24.00
	-24.00	-43.00	332.00	-107.00	-51.00	7.00	-18.00
	-14.00	-15.00	275.00	-83.00	-52.00	12.00	7.00
	-2.00	6.00	134.00	-59.00	-35.00	5.00	24.00
	1.00	9.00	33.00	-28.00	-19.00	-32.00	25.00
	5.00	7.00	73.00	-30.00	-11.00	-2.00	17.00
	16.00	8.00	209.00	-30.00	3.00	39.00	12.00
	17.00	25.00	270.00	-25.00	1.00	53.00	1.00
	25.00	35.00	138.00	-12.00	0.00	56.00	-54.00
	23.00	64.00	11.00	22.00	-10.00	47.00	-51.00
	25.00	68.00	-254.00	111.00	-8.00	19.00	-9.00
	16.00	58.00	-461.00	51.00	4.00	-35.00	6.00
	4.00	32.00	-442.00	30.00	24.00	-47.00	10.00
	-14.00	1.00	-306.00	13.00	35.00	-44.00	6.00
	-18.00	-48.00	-80.00	5.00	16.00	-31.00	6.00
	-33.00	-39.00	106.00	20.00	4.00	-21.00	13.00
	-28.00	-20.00	86.00	12.00	-3.00	-5.00	14.00
	-30.00	-4.00	57.00	29.00	-1.00	9.00	7.00
	1.00	21.00	49.00	70.00	3.00	21.00	11.00
	19.00	33.00	61.00	59.00	4.00	19.00	9.00
	22.00	36.00	136.00	40.00	16.00	25.00	9.00
	21.00	27.00	132.00	-46.00	13.00	12.00	5.00
	5.00	18.00	69.00	-68.00	19.00	-12.00	4.00
	-11.00	3.00	42.00	-88.00	26.00	-4.00	4.00
	-20.00	6.00	-47.00	-31.00	32.00	6.00	9.00
	-30.00	-7.00	-61.00	60.00	39.00	12.00	3.00
	-29.00	-8.00	-64.00	74.00	37.00	10.00	3.00
	-23.00	-18.00	-26.00	10.00	35.00	17.00	-7.00
	-28.00	2.00	-31.00	-29.00	53.00	26.00	-3.00
	-24.00	31.00	90.00	-35.00	71.00	22.00	3.00
	-16.00	23.00	8.00	46.00	62.00	23.00	1.00
	-16.00	29.00	-143.00	105.00	40.00	20.00	-2.00
	-7.00	10.00	-250.00	131.00	29.00	2.00	-4.00
	-7.00	3.00	-239.00	135.00	25.00	-12.00	-1.00
	-1.00	14.00	-184.00	38.00	21.00	-36.00	-5.00
	9.00	18.00	-56.00	27.00	0.00	-16.00	-2.00
	7.00	27.00	61.00	-5.00	-24.00	0.00	1.00
	9.00	22.00	115.00	-32.00	-35.00	3.00	0.00
	11.00	29.00	86.00	4.00	-23.00	6.00	-7.00
	10.00	18.00	43.00	22.00	-17.00	2.00	5.00
	16.00	3.00	43.00	18.00	-9.00	3.00	10.00
	11.00	-21.00	78.00	24.00	-1.00	14.00	0.00
	13.00	-5.00	115.00	-26.00	-4.00	24.00	-3.00
	5.00	6.00	81.00	-87.00	-6.00	21.00	1.00
	-1.00	47.00	35.00	-84.00	2.00	12.00	0.00
	-8.00	46.00	37.00	-9.00	5.00	29.00	-8.00
	-6.00	43.00	-15.00	-26.00	-1.00	26.00	-1.00
	-7.00	9.00	67.00	-24.00	0.00	22.00	3.00
	-5.00	0.00	71.00	2.00	3.00	11.00	-7.00
	4.00	32.00	-19.00	24.00	2.00	7.00	-18.00
	1.00	18.00	-2.00	20.00	0.00	2.00	-8.00
	-10.00	27.00	24.00	7.00	5.00	-16.00	4.00
	-8.00	20.00	-62.00	-7.00	18.00	-14.00	13.00
	-5.00	18.00	-44.00	-13.00	21.00	-5.00	22.00
	-3.00	12.00	-51.00	14.00	32.00	3.00	21.00
	5.00	-7.00	4.00	8.00	26.00	9.00	14.00
	7.00	-4.00	28.00	-5.00	21.00	13.00	-3.00
	12.00	8.00	105.00	0.00	17.00	16.00	8.00
	19.00	4.00	199.00	-38.00	7.00	18.00	-4.00
	14.00	8.00	132.00	-57.00	1.00	14.00	-32.00
	5.00	-1.00	0.00	-86.00	4.00	6.00	-28.00
	-11.00	6.00	-151.00	-78.00	2.00	11.00	-37.00
	-9.00	14.00	-286.00	-27.00	7.00	2.00	-46.00
	-3.00	11.00	-311.00	56.00	7.00	-8.00	-28.00
	0.00	-7.00	-197.00	41.00	7.00	0.00	-4.00
	7.00	-18.00	-40.00	11.00	31.00	7.00	-5.00
	9.00	-3.00	17.00	39.00	24.00	6.00	-2.00
	12.00	3.00	45.00	73.00	8.00	7.00	-10.00
	5.00	8.00	71.00	59.00	1.00	13.00	13.00
	-2.00	10.00	127.00	23.00	-1.00	8.00	29.00
	-12.00	26.00	201.00	-21.00	-2.00	-2.00	33.00
	-3.00	36.00	124.00	-11.00	9.00	5.00	23.00
	3.00	75.00	-11.00	21.00	5.00	7.00	18.00
	9.00	58.00	-42.00	22.00	1.00	6.00	12.00
	11.00	48.00	24.00	41.00	0.00	10.00	3.00
	5.00	33.00	49.00	33.00	7.00	9.00	-7.00
	-12.00	7.00	80.00	-37.00	5.00	12.00	-7.00
	-21.00	0.00	46.00	-28.00	9.00	10.00	-9.00
	-35.00	-10.00	-45.00	-26.00	7.00	10.00	-16.00
	-47.00	-23.00	-98.00	-61.00	5.00	10.00	-13.00
	-48.00	-16.00	-58.00	-53.00	18.00	-9.00	-19.00
	-45.00	-11.00	21.00	-30.00	18.00	-34.00	-12.00
	-42.00	-26.00	164.00	-126.00	13.00	-4.00	-15.00
	-54.00	3.00	168.00	-130.00	16.00	-4.00	-28.00
	-30.00	26.00	111.00	-19.00	39.00	-11.00	-6.00
	-10.00	38.00	17.00	69.00	79.00	-7.00	1.00
	11.00	23.00	-83.00	105.00	54.00	7.00	14.00
	17.00	18.00	-205.00	152.00	19.00	8.00	20.00
	24.00	52.00	-232.00	109.00	12.00	-2.00	23.00
	33.00	49.00	-179.00	49.00	-10.00	6.00	32.00
	38.00	35.00	-118.00	74.00	-20.00	20.00	30.00
	28.00	41.00	0.00	84.00	-9.00	18.00	6.00
	20.00	25.00	33.00	47.00	-14.00	15.00	-1.00
	18.00	-16.00	32.00	75.00	-25.00	9.00	5.00
	5.00	-51.00	74.00	60.00	-42.00	7.00	-2.00
	8.00	-38.00	115.00	47.00	-47.00	11.00	-6.00
	11.00	-20.00	15.00	3.00	-41.00	11.00	-3.00
	-2.00	5.00	-72.00	-52.00	-29.00	-4.00	-32.00
	-3.00	23.00	-87.00	-48.00	-24.00	1.00	-40.00
	3.00	18.00	-35.00	-61.00	-7.00	10.00	-21.00
	-10.00	-1.00	-122.00	-34.00	2.00	-2.00	-7.00
	-15.00	-14.00	7.00	-20.00	24.00	-5.00	2.00
	-17.00	-24.00	195.00	-7.00	34.00	0.00	5.00
	-20.00	-8.00	241.00	8.00	37.00	7.00	9.00
	-44.00	-3.00	213.00	-7.00	42.00	14.00	8.00
	-43.00	-5.00	184.00	-43.00	49.00	19.00	9.00
	-38.00	5.00	126.00	-53.00	44.00	23.00	6.00
	-27.00	2.00	54.00	-50.00	42.00	22.00	0.00
	-27.00	-15.00	10.00	24.00	26.00	22.00	6.00
	-14.00	-15.00	-5.00	118.00	18.00	22.00	17.00
	-22.00	4.00	-22.00	192.00	20.00	15.00	18.00
	-9.00	-4.00	-65.00	109.00	24.00	18.00	18.00
	6.00	35.00	-109.00	-13.00	19.00	18.00	16.00
	16.00	44.00	-128.00	-124.00	8.00	18.00	21.00
	28.00	53.00	-60.00	-174.00	3.00	15.00	19.00
	42.00	52.00	-32.00	-115.00	18.00	3.00	-1.00
	47.00	37.00	-69.00	-53.00	26.00	-7.00	6.00
	38.00	30.00	-7.00	-42.00	27.00	-3.00	2.00
	42.00	31.00	17.00	44.00	10.00	-7.00	-20.00
	27.00	29.00	-31.00	46.00	-5.00	-11.00	-25.00
	7.00	19.00	-26.00	41.00	1.00	-6.00	-22.00
	-4.00	-4.00	-48.00	48.00	-4.00	1.00	-13.00
	-20.00	-6.00	-123.00	28.00	-11.00	-15.00	-20.00
	-20.00	3.00	-129.00	3.00	19.00	-14.00	-16.00
	-17.00	-2.00	38.00	-34.00	34.00	-11.00	-10.00
	-22.00	7.00	69.00	-58.00	23.00	-9.00	-16.00
	-24.00	16.00	25.00	-36.00	15.00	-2.00	-6.00
	-16.00	8.00	9.00	-38.00	11.00	5.00	11.00
	-22.00	23.00	35.00	-44.00	6.00	10.00	-6.00
	-20.00	26.00	117.00	-43.00	3.00	17.00	4.00
	-12.00	53.00	80.00	-2.00	2.00	23.00	11.00
	-15.00	79.00	16.00	71.00	1.00	20.00	10.00
	-12.00	64.00	-45.00	156.00	4.00	17.00	12.00
	-14.00	50.00	-149.00	202.00	10.00	18.00	16.00
	-13.00	39.00	-82.00	166.00	5.00	21.00	17.00
	10.00	1.00	-1.00	35.00	9.00	12.00	11.00
	20.00	-24.00	66.00	-86.00	29.00	13.00	4.00
	25.00	-23.00	186.00	-155.00	18.00	11.00	10.00
	29.00	-1.00	134.00	-157.00	5.00	12.00	-7.00
	26.00	10.00	20.00	-72.00	0.00	0.00	-18.00
	20.00	7.00	17.00	8.00	0.00	-9.00	-5.00
	16.00	26.00	-7.00	-81.00	0.00	-20.00	-18.00
	12.00	35.00	-210.00	-45.00	5.00	-29.00	-11.00
	5.00	23.00	-177.00	-28.00	11.00	-27.00	1.00
	-1.00	12.00	-164.00	19.00	8.00	-16.00	-11.00
	-9.00	8.00	-263.00	62.00	-4.00	4.00	-9.00
	-4.00	-6.00	-212.00	137.00	0.00	17.00	9.00
	-11.00	12.00	-98.00	107.00	4.00	32.00	4.00
	3.00	-8.00	-10.00	94.00	3.00	38.00	19.00
	6.00	-21.00	25.00	94.00	1.00	26.00	8.00
	-17.00	-32.00	69.00	88.00	7.00	7.00	0.00
	-28.00	-38.00	63.00	33.00	10.00	-14.00	-15.00
	-28.00	-39.00	86.00	9.00	13.00	-7.00	-21.00
	-22.00	-42.00	152.00	11.00	16.00	-4.00	-13.00
	-7.00	-17.00	207.00	-29.00	16.00	4.00	0.00
	3.00	-6.00	162.00	-19.00	7.00	12.00	4.00
	-6.00	3.00	107.00	-35.00	14.00	23.00	6.00
	-16.00	12.00	116.00	-67.00	38.00	27.00	8.00
	-19.00	33.00	27.00	-78.00	38.00	28.00	18.00
	-27.00	54.00	-36.00	-86.00	31.00	20.00	7.00
	-30.00	65.00	21.00	-97.00	51.00	3.00	3.00
	-28.00	42.00	27.00	-16.00	38.00	-2.00	5.00
	-24.00	36.00	-83.00	8.00	8.00	3.00	7.00
	-16.00	13.00	-180.00	65.00	-14.00	3.00	5.00
	-9.00	-5.00	-108.00	103.00	-26.00	7.00	5.00
	-5.00	-27.00	1.00	54.00	-45.00	21.00	4.00
	-8.00	-30.00	79.00	7.00	-50.00	23.00	5.00
	-7.00	-8.00	105.00	-6.00	-48.00	17.00	6.00
	-6.00	4.00	120.00	5.00	-27.00	-14.00	3.00
	-1.00	35.00	210.00	12.00	-9.00	-33.00	7.00
	-10.00	50.00	240.00	10.00	20.00	9.00	5.00
	-14.00	37.00	196.00	-14.00	28.00	19.00	4.00
	-8.00	13.00	187.00	5.00	64.00	15.00	11.00
	-3.00	-7.00	207.00	8.00	85.00	11.00	15.00
	2.00	-20.00	56.00	-24.00	65.00	34.00	9.00
	-2.00	7.00	-113.00	-52.00	29.00	20.00	5.00
	-6.00	17.00	-229.00	-89.00	-7.00	10.00	18.00
	5.00	24.00	-279.00	-91.00	-33.00	-8.00	8.00
	-3.00	34.00	-318.00	10.00	-33.00	-13.00	12.00
	1.00	39.00	-155.00	26.00	-37.00	-13.00	6.00
	4.00	24.00	-58.00	64.00	-27.00	-4.00	3.00
	11.00	17.00	-27.00	59.00	-7.00	-1.00	-11.00
	11.00	18.00	7.00	-15.00	2.00	-2.00	-19.00
	14.00	3.00	46.00	-15.00	3.00	5.00	-16.00
	12.00	-1.00	68.00	-12.00	-6.00	10.00	-8.00
	1.00	10.00	43.00	42.00	-1.00	10.00	-4.00
	-3.00	7.00	68.00	86.00	6.00	22.00	20.00
	-12.00	15.00	19.00	10.00	13.00	10.00	15.00
	5.00	-6.00	-63.00	-75.00	6.00	-2.00	-13.00
	13.00	-26.00	-132.00	-40.00	5.00	11.00	-31.00
	-2.00	13.00	-146.00	-29.00	10.00	4.00	-36.00
	-12.00	22.00	-134.00	-23.00	22.00	-2.00	-46.00
	-11.00	0.00	-79.00	42.00	28.00	-14.00	-34.00
	-10.00	1.00	6.00	88.00	24.00	-18.00	-13.00
	-4.00	12.00	86.00	42.00	30.00	-6.00	0.00
	-7.00	20.00	61.00	-11.00	48.00	3.00	11.00
	-2.00	15.00	48.00	-13.00	32.00	8.00	3.00
	-2.00	41.00	11.00	-19.00	21.00	9.00	-5.00
	-2.00	39.00	-59.00	-19.00	15.00	12.00	9.00
	9.00	27.00	-62.00	20.00	10.00	4.00	8.00
	3.00	22.00	-36.00	50.00	12.00	6.00	-5.00
	3.00	17.00	-36.00	73.00	9.00	3.00	-3.00
	0.00	22.00	-23.00	126.00	6.00	9.00	-12.00
	0.00	19.00	22.00	21.00	21.00	13.00	-6.00
	2.00	16.00	47.00	-35.00	21.00	12.00	13.00
	7.00	35.00	65.00	30.00	13.00	25.00	9.00
	17.00	27.00	98.00	64.00	5.00	23.00	-5.00
	23.00	15.00	135.00	50.00	0.00	14.00	17.00
	21.00	19.00	108.00	41.00	1.00	9.00	18.00
	17.00	7.00	41.00	43.00	6.00	14.00	7.00
	21.00	-5.00	-8.00	-42.00	0.00	5.00	0.00
	-3.00	-4.00	-88.00	-79.00	9.00	-4.00	0.00
	-19.00	0.00	-140.00	-79.00	23.00	-4.00	7.00
	-16.00	10.00	-73.00	-78.00	19.00	10.00	5.00
	-13.00	37.00	-72.00	-70.00	-3.00	18.00	-9.00
	-12.00	48.00	-61.00	-30.00	8.00	-5.00	-4.00
	-9.00	53.00	58.00	-10.00	39.00	2.00	-4.00
	-11.00	34.00	148.00	-6.00	29.00	-2.00	6.00
	-14.00	7.00	108.00	16.00	12.00	6.00	24.00
	-13.00	18.00	159.00	-17.00	-8.00	3.00	24.00
	-4.00	-9.00	157.00	-71.00	-27.00	8.00	19.00
	-16.00	-5.00	-33.00	-35.00	-43.00	13.00	4.00
	-19.00	-12.00	-131.00	15.00	-48.00	10.00	12.00
	-10.00	-2.00	-143.00	47.00	-40.00	6.00	-12.00
	-14.00	0.00	-105.00	94.00	-29.00	6.00	-13.00
	-26.00	-9.00	-111.00	118.00	-9.00	-6.00	-29.00
	-30.00	4.00	48.00	50.00	24.00	-14.00	-10.00
	-27.00	6.00	103.00	46.00	36.00	-4.00	-5.00
	-14.00	-17.00	64.00	-7.00	37.00	10.00	-10.00
	-5.00	-13.00	-5.00	-60.00	44.00	15.00	-11.00
	-6.00	-2.00	46.00	-92.00	43.00	15.00	7.00
	-14.00	-18.00	80.00	-151.00	33.00	15.00	12.00
	-21.00	-49.00	80.00	-129.00	17.00	20.00	10.00
	-20.00	-53.00	24.00	-55.00	6.00	28.00	19.00
	-14.00	11.00	-10.00	-47.00	4.00	22.00	16.00
	-11.00	31.00	-128.00	-16.00	17.00	18.00	-1.00
	-9.00	53.00	-82.00	47.00	34.00	16.00	-10.00
	-9.00	87.00	-38.00	69.00	21.00	15.00	-3.00
	-1.00	66.00	-35.00	107.00	2.00	5.00	10.00
	12.00	59.00	-31.00	134.00	-5.00	-7.00	34.00
	20.00	61.00	15.00	82.00	4.00	-10.00	30.00
	7.00	42.00	67.00	127.00	0.00	-6.00	26.00
	-3.00	5.00	50.00	76.00	-5.00	3.00	10.00
	2.00	-9.00	7.00	-7.00	-8.00	-2.00	-30.00
	5.00	-20.00	-46.00	-61.00	-8.00	-10.00	-49.00
	7.00	-9.00	-117.00	-116.00	-9.00	2.00	-30.00
	6.00	7.00	-4.00	-114.00	-2.00	6.00	-22.00
	23.00	14.00	33.00	-56.00	0.00	9.00	-12.00
	33.00	15.00	20.00	64.00	1.00	10.00	-1.00
	28.00	23.00	-36.00	138.00	16.00	5.00	3.00
	25.00	3.00	-125.00	144.00	24.00	-16.00	4.00
	13.00	-9.00	-197.00	123.00	33.00	-24.00	-5.00
	16.00	-24.00	-132.00	63.00	73.00	-5.00	-2.00
	20.00	-9.00	-59.00	-28.00	83.00	17.00	1.00
	21.00	-2.00	-101.00	-22.00	65.00	16.00	-7.00
	10.00	-14.00	3.00	33.00	36.00	28.00	10.00
	2.00	-33.00	204.00	-47.00	2.00	26.00	8.00
	-10.00	-31.00	311.00	-92.00	-27.00	25.00	6.00
	-8.00	6.00	335.00	-52.00	-50.00	17.00	4.00
	-16.00	51.00	300.00	-34.00	-56.00	9.00	3.00
	-16.00	35.00	167.00	48.00	-53.00	3.00	1.00
	-10.00	48.00	71.00	66.00	-42.00	-15.00	1.00
	-18.00	53.00	-37.00	-15.00	-19.00	-26.00	8.00
	-26.00	26.00	-73.00	-36.00	-3.00	-13.00	13.00
	-25.00	11.00	-56.00	-59.00	2.00	5.00	21.00
	-30.00	14.00	-126.00	-34.00	7.00	17.00	38.00
	-24.00	13.00	-104.00	-16.00	35.00	14.00	51.00
	-25.00	50.00	-17.00	-3.00	47.00	20.00	38.00
	-18.00	50.00	46.00	-51.00	38.00	18.00	6.00
	-9.00	27.00	64.00	-21.00	23.00	19.00	-8.00
	-6.00	12.00	78.00	-58.00	19.00	6.00	-44.00
	-4.00	24.00	125.00	-71.00	17.00	-43.00	-37.00
	0.00	33.00	14.00	-89.00	8.00	-27.00	-42.00
	7.00	48.00	-62.00	-70.00	-5.00	24.00	-47.00
	6.00	42.00	-178.00	29.00	-5.00	27.00	-34.00
	10.00	13.00	-260.00	72.00	-6.00	13.00	-24.00
	2.00	18.00	-162.00	49.00	6.00	3.00	-7.00
	1.00	0.00	-10.00	89.00	18.00	5.00	-24.00
	2.00	-34.00	29.00	96.00	23.00	29.00	0.00
	10.00	-58.00	86.00	86.00	18.00	16.00	15.00
	3.00	-51.00	22.00	117.00	22.00	3.00	15.00
	2.00	-40.00	-40.00	98.00	20.00	13.00	9.00
	4.00	-38.00	-58.00	-18.00	21.00	1.00	11.00
	0.00	-27.00	-107.00	-17.00	24.00	-10.00	11.00
	10.00	-11.00	-94.00	-29.00	25.00	-13.00	14.00
	11.00	0.00	-59.00	-72.00	19.00	10.00	15.00
	4.00	7.00	-107.00	-37.00	12.00	20.00	10.00
	16.00	19.00	-181.00	23.00	13.00	14.00	10.00
	16.00	30.00	-81.00	28.00	14.00	9.00	29.00
	10.00	44.00	-26.00	67.00	5.00	4.00	36.00
	3.00	31.00	-39.00	66.00	3.00	2.00	40.00
	9.00	34.00	40.00	-2.00	4.00	-3.00	30.00
	8.00	33.00	-10.00	-21.00	14.00	1.00	22.00
	-3.00	39.00	-36.00	-38.00	10.00	-4.00	-18.00
	-30.00	43.00	39.00	-36.00	12.00	4.00	-56.00
	-29.00	40.00	172.00	-17.00	25.00	8.00	-44.00
	-18.00	20.00	267.00	-4.00	24.00	10.00	-30.00
	-21.00	-7.00	245.00	-39.00	9.00	14.00	-15.00
	-25.00	-22.00	229.00	-55.00	-6.00	16.00	-12.00
	-27.00	-24.00	139.00	-42.00	-9.00	19.00	16.00
	-28.00	-13.00	42.00	-10.00	-17.00	12.00	11.00
	-26.00	22.00	-5.00	58.00	-15.00	10.00	26.00
	-22.00	17.00	4.00	147.00	-9.00	19.00	56.00
	-15.00	29.00	-36.00	178.00	23.00	14.00	29.00
	3.00	11.00	-95.00	124.00	28.00	-19.00	30.00
	4.00	-2.00	-161.00	59.00	20.00	-12.00	39.00
	8.00	8.00	-133.00	-39.00	16.00	-5.00	1.00
	7.00	29.00	-44.00	-77.00	6.00	0.00	-36.00
	2.00	19.00	-14.00	-100.00	-4.00	1.00	-57.00
	-14.00	4.00	83.00	-110.00	2.00	-2.00	-56.00
	-13.00	16.00	236.00	-124.00	10.00	-1.00	-68.00
	-9.00	69.00	300.00	-128.00	14.00	7.00	-45.00
	-4.00	64.00	183.00	-93.00	12.00	10.00	-35.00
	-8.00	66.00	107.00	17.00	7.00	14.00	-25.00
	-9.00	63.00	38.00	84.00	6.00	12.00	7.00
	-10.00	21.00	-98.00	90.00	8.00	5.00	34.00
	-9.00	-16.00	-197.00	151.00	40.00	6.00	44.00
	-3.00	-52.00	-133.00	30.00	70.00	17.00	53.00
	1.00	-66.00	-171.00	-65.00	54.00	18.00	37.00
