
	-4.00	-14.00	156.00	78.00	-180.00	-4.00	10.00
	-6.00	-36.00	89.00	83.00	-206.00	5.00	9.00
	-10.00	-82.00	68.00	101.00	-182.00	7.00	8.00
	-8.00	-119.00	54.00	123.00	-141.00	7.00	6.00
	-3.00	-85.00	27.00	181.00	-131.00	12.00	5.00
	-1.00	-29.00	-9.00	176.00	-40.00	16.00	6.00
	0.00	22.00	-51.00	105.00	47.00	16.00	5.00
	5.00	75.00	-77.00	66.00	126.00	16.00	7.00
	10.00	106.00	-84.00	33.00	152.00	16.00	8.00
	6.00	87.00	-118.00	3.00	143.00	15.00	6.00
	8.00	112.00	-118.00	9.00	146.00	15.00	6.00
	6.00	121.00	-109.00	41.00	172.00	23.00	5.00
	0.00	100.00	-77.00	66.00	89.00	22.00	4.00
	5.00	39.00	-53.00	68.00	31.00	22.00	4.00
	6.00	-29.00	-32.00	32.00	39.00	15.00	5.00
	2.00	-73.00	-17.00	1.00	-9.00	11.00	4.00
	6.00	-53.00	28.00	-44.00	-60.00	9.00	2.00
	6.00	-16.00	63.00	-76.00	-139.00	8.00	1.00
	12.00	-1.00	115.00	-91.00	-212.00	1.00	0.00
	25.00	14.00	167.00	-107.00	-185.00	-2.00	-1.00
	32.00	6.00	143.00	-149.00	-182.00	-10.00	-3.00
	45.00	-10.00	48.00	-151.00	-202.00	-14.00	-4.00
	49.00	-16.00	-6.00	-90.00	-128.00	-14.00	-4.00
	47.00	-15.00	-49.00	-17.00	-23.00	-13.00	-4.00
	38.00	-75.00	-60.00	23.00	40.00	-12.00	-5.00
	22.00	-118.00	-77.00	60.00	118.00	-12.00	-5.00
	2.00	-100.00	-103.00	181.00	180.00	0.00	-4.00
	-15.00	-54.00	-13.00	252.00	227.00	10.00	-2.00
	-39.00	20.00	39.00	193.00	263.00	12.00	-4.00
	-51.00	76.00	21.00	86.00	250.00	12.00	-5.00
	-62.00	107.00	-16.00	42.00	208.00	8.00	-3.00
	-64.00	98.00	-40.00	31.00	200.00	13.00	0.00
	-72.00	79.00	-55.00	-27.00	140.00	16.00	-2.00
	-74.00	79.00	-19.00	-40.00	38.00	14.00	0.00
	-90.00	95.00	42.00	-30.00	-36.00	11.00	0.00
	-92.00	82.00	92.00	-11.00	-63.00	12.00	-1.00
	-94.00	76.00	103.00	45.00	-97.00	18.00	-4.00
	-103.00	66.00	75.00	29.00	-136.00	15.00	-4.00
	-102.00	51.00	48.00	-24.00	-157.00	7.00	-5.00
	-80.00	75.00	52.00	-44.00	-127.00	4.00	-3.00
	-75.00	93.00	46.00	-57.00	-107.00	3.00	-3.00
	-78.00	65.00	-43.00	-66.00	-88.00	4.00	-8.00
	-73.00	28.00	-150.00	-71.00	-64.00	4.00	-13.00
	-60.00	-35.00	-182.00	-80.00	-23.00	3.00	-13.00
	-50.00	-33.00	-125.00	-90.00	-28.00	-1.00	-19.00
	-33.00	-21.00	-53.00	-97.00	-4.00	-5.00	-18.00
	-22.00	-49.00	5.00	-158.00	68.00	-10.00	-15.00
	-8.00	-60.00	37.00	-187.00	160.00	-11.00	-13.00
	4.00	-35.00	71.00	-132.00	214.00	-13.00	-8.00
	7.00	-10.00	72.00	-100.00	190.00	-4.00	-5.00
	11.00	24.00	41.00	-52.00	166.00	4.00	-7.00
	13.00	36.00	-62.00	35.00	191.00	12.00	-7.00
	20.00	51.00	-121.00	184.00	139.00	18.00	-4.00
	29.00	70.00	-158.00	247.00	94.00	15.00	-2.00
	40.00	44.00	-194.00	197.00	57.00	18.00	-4.00
	50.00	2.00	-96.00	84.00	-11.00	18.00	-8.00
	75.00	-22.00	18.00	11.00	-80.00	12.00	-4.00
	88.00	-14.00	16.00	-22.00	-155.00	7.00	-2.00
	107.00	0.00	32.00	-61.00	-226.00	6.00	3.00
	121.00	44.00	52.00	-49.00	-207.00	0.00	2.00
	118.00	83.00	21.00	-71.00	-197.00	-6.00	1.00
	114.00	85.00	5.00	-51.00	-179.00	-6.00	3.00
	112.00	28.00	-29.00	-20.00	-90.00	-2.00	7.00
	111.00	6.00	-77.00	-3.00	-32.00	-1.00	5.00
	95.00	20.00	-67.00	1.00	-43.00	8.00	6.00
	93.00	-18.00	-52.00	4.00	-3.00	12.00	3.00
	94.00	-25.00	-13.00	65.00	56.00	11.00	4.00
	84.00	-33.00	32.00	104.00	142.00	13.00	0.00
	82.00	-46.00	65.00	117.00	192.00	18.00	2.00
	74.00	-98.00	49.00	107.00	163.00	20.00	4.00
	63.00	-115.00	63.00	70.00	140.00	19.00	4.00
	61.00	-85.00	57.00	29.00	154.00	20.00	2.00
	42.00	-54.00	99.00	21.00	138.00	14.00	3.00
	24.00	-41.00	106.00	46.00	127.00	6.00	3.00
	12.00	0.00	78.00	68.00	133.00	-1.00	8.00
	0.00	41.00	96.00	38.00	67.00	-10.00	6.00
	-16.00	52.00	68.00	11.00	-54.00	-15.00	5.00
	-34.00	32.00	84.00	9.00	-140.00	-15.00	3.00
	-51.00	60.00	93.00	-49.00	-192.00	-17.00	3.00
	-54.00	76.00	75.00	-97.00	-193.00	-14.00	4.00
	-53.00	81.00	49.00	-98.00	-197.00	-9.00	4.00
	-54.00	34.00	13.00	-95.00	-186.00	-11.00	5.00
	-54.00	4.00	-47.00	-164.00	-131.00	-10.00	2.00
	-54.00	-34.00	-59.00	-146.00	-75.00	-8.00	1.00
	-47.00	-46.00	-52.00	-72.00	-84.00	-6.00	-1.00
	-39.00	-41.00	-27.00	43.00	-47.00	-9.00	-6.00
	-33.00	-30.00	-16.00	130.00	12.00	-12.00	-10.00
	-31.00	-13.00	-21.00	223.00	74.00	-10.00	-10.00
	-36.00	-3.00	-55.00	250.00	85.00	-2.00	-16.00
	-39.00	21.00	-80.00	226.00	101.00	16.00	-20.00
	-44.00	16.00	-10.00	98.00	132.00	20.00	-20.00
	-32.00	16.00	32.00	-9.00	202.00	27.00	-9.00
	-35.00	14.00	31.00	-106.00	183.00	17.00	-5.00
	-41.00	0.00	42.00	-201.00	135.00	7.00	-3.00
	-43.00	3.00	71.00	-220.00	130.00	6.00	-1.00
	-44.00	4.00	100.00	-144.00	75.00	7.00	5.00
	-40.00	37.00	61.00	-33.00	62.00	8.00	5.00
	-46.00	45.00	0.00	56.00	-36.00	8.00	3.00
	-41.00	19.00	-34.00	107.00	-140.00	1.00	2.00
	-38.00	21.00	-33.00	95.00	-160.00	-3.00	1.00
	-38.00	28.00	-2.00	58.00	-185.00	-5.00	-1.00
	-46.00	48.00	-17.00	-82.00	-200.00	-4.00	-3.00
	-35.00	42.00	-6.00	-212.00	-134.00	-7.00	-6.00
	-27.00	22.00	6.00	-168.00	-74.00	-8.00	-8.00
	-25.00	-6.00	27.00	-92.00	-56.00	-3.00	-9.00
	-26.00	4.00	22.00	-21.00	30.00	4.00	-6.00
	-18.00	39.00	-40.00	58.00	105.00	10.00	-2.00
	-10.00	72.00	-152.00	95.00	171.00	16.00	-1.00
	-6.00	52.00	-256.00	111.00	249.00	23.00	-3.00
	-10.00	30.00	-203.00	133.00	267.00	25.00	-2.00
	-1.00	24.00	-133.00	123.00	257.00	24.00	-3.00
	5.00	-7.00	-57.00	102.00	283.00	25.00	2.00
	10.00	-30.00	12.00	123.00	214.00	19.00	3.00
	8.00	-50.00	88.00	114.00	134.00	17.00	6.00
	1.00	-90.00	135.00	104.00	54.00	16.00	6.00
	3.00	-83.00	145.00	78.00	-19.00	13.00	8.00
	-3.00	-39.00	132.00	38.00	-96.00	9.00	4.00
	-10.00	10.00	109.00	-27.00	-163.00	7.00	4.00
	-18.00	45.00	79.00	-74.00	-211.00	5.00	1.00
	-11.00	83.00	52.00	-108.00	-194.00	5.00	0.00
	-6.00	114.00	27.00	-95.00	-190.00	4.00	-1.00
	-4.00	115.00	5.00	-70.00	-199.00	-4.00	0.00
	-1.00	68.00	-20.00	-34.00	-144.00	-4.00	-2.00
	-5.00	50.00	-46.00	-9.00	-107.00	-1.00	-6.00
	-2.00	83.00	-66.00	-49.00	-97.00	2.00	-6.00
	-3.00	96.00	-35.00	-126.00	-48.00	4.00	-6.00
	-3.00	76.00	26.00	-132.00	37.00	2.00	-4.00
	6.00	15.00	80.00	-55.00	125.00	-1.00	-6.00
	10.00	-81.00	102.00	6.00	198.00	0.00	-7.00
	6.00	-136.00	95.00	43.00	215.00	0.00	-9.00
	5.00	-170.00	8.00	96.00	210.00	10.00	-4.00
	8.00	-152.00	-72.00	108.00	233.00	19.00	-2.00
	6.00	-81.00	-119.00	113.00	197.00	22.00	0.00
	0.00	-29.00	-117.00	124.00	129.00	16.00	0.00
	2.00	34.00	-145.00	69.00	27.00	14.00	3.00
	-8.00	45.00	-125.00	-2.00	-92.00	10.00	2.00
	-8.00	101.00	-100.00	-36.00	-160.00	12.00	1.00
	-4.00	121.00	-69.00	-37.00	-223.00	10.00	3.00
	-2.00	83.00	-36.00	-60.00	-285.00	4.00	5.00
	-8.00	56.00	-13.00	-110.00	-262.00	0.00	9.00
	-7.00	29.00	-16.00	-52.00	-269.00	-3.00	5.00
	-12.00	35.00	22.00	-12.00	-242.00	1.00	3.00
	-6.00	36.00	33.00	-20.00	-115.00	4.00	3.00
	4.00	17.00	45.00	-21.00	-35.00	4.00	4.00
	-4.00	-6.00	115.00	-5.00	17.00	7.00	2.00
	10.00	-9.00	139.00	22.00	117.00	7.00	-2.00
	10.00	5.00	117.00	61.00	217.00	10.00	-7.00
	11.00	5.00	47.00	53.00	286.00	13.00	-11.00
	16.00	25.00	-29.00	12.00	347.00	21.00	-13.00
	14.00	28.00	-74.00	-77.00	348.00	16.00	-15.00
	15.00	21.00	-89.00	-102.00	287.00	8.00	-11.00
	15.00	-7.00	-81.00	-77.00	260.00	4.00	-7.00
	14.00	-41.00	-60.00	-65.00	158.00	0.00	-3.00
	12.00	-51.00	-55.00	-42.00	34.00	-5.00	0.00
	0.00	-70.00	-78.00	-28.00	-48.00	-7.00	4.00
	-4.00	-61.00	-72.00	7.00	-71.00	-5.00	5.00
	-3.00	-47.00	-21.00	-10.00	-91.00	-4.00	5.00
	-10.00	-21.00	41.00	-3.00	-116.00	-6.00	3.00
	-14.00	-23.00	90.00	15.00	-148.00	-11.00	1.00
	-12.00	-9.00	86.00	40.00	-156.00	-10.00	3.00
	-14.00	27.00	103.00	65.00	-166.00	-7.00	-4.00
	-15.00	67.00	152.00	38.00	-193.00	-8.00	-5.00
	-20.00	57.00	166.00	-29.00	-160.00	-9.00	-7.00
	-16.00	18.00	166.00	-39.00	-101.00	-5.00	-7.00
	-5.00	-10.00	144.00	-25.00	-58.00	-8.00	-9.00
	5.00	19.00	90.00	3.00	2.00	-4.00	-9.00
	1.00	30.00	12.00	50.00	97.00	-3.00	-8.00
	10.00	-6.00	-43.00	92.00	174.00	0.00	-4.00
	12.00	20.00	-146.00	164.00	244.00	4.00	-2.00
	8.00	86.00	-206.00	213.00	272.00	14.00	-1.00
	4.00	116.00	-212.00	230.00	273.00	23.00	1.00
	4.00	127.00	-164.00	169.00	265.00	16.00	-1.00
	10.00	95.00	-105.00	80.00	211.00	9.00	2.00
	3.00	68.00	-29.00	13.00	120.00	7.00	0.00
	-3.00	16.00	17.00	-8.00	60.00	5.00	1.00
	-7.00	-47.00	66.00	-20.00	-12.00	8.00	5.00
	-7.00	-59.00	92.00	-53.00	-87.00	11.00	8.00
	-17.00	-96.00	78.00	-68.00	-163.00	11.00	7.00
	-18.00	-84.00	36.00	-50.00	-235.00	11.00	5.00
	-13.00	-61.00	-3.00	4.00	-220.00	10.00	4.00
	-18.00	-74.00	11.00	87.00	-215.00	12.00	4.00
	-14.00	-56.00	17.00	78.00	-296.00	7.00	4.00
	-9.00	8.00	39.00	27.00	-264.00	0.00	4.00
	-4.00	67.00	50.00	-6.00	-181.00	0.00	3.00
	-1.00	117.00	47.00	-44.00	-173.00	2.00	1.00
	3.00	124.00	59.00	-88.00	-107.00	10.00	1.00
	4.00	72.00	77.00	-127.00	-58.00	8.00	-3.00
	14.00	71.00	85.00	-113.00	29.00	12.00	-5.00
	14.00	106.00	106.00	-97.00	151.00	19.00	-6.00
	6.00	88.00	148.00	-115.00	222.00	11.00	-5.00
	7.00	74.00	109.00	-92.00	250.00	3.00	-3.00
	8.00	11.00	20.00	-68.00	312.00	7.00	-2.00
	1.00	-21.00	-82.00	-26.00	292.00	11.00	-1.00
	-5.00	-54.00	-169.00	-13.00	238.00	16.00	1.00
	-11.00	-77.00	-222.00	-12.00	195.00	17.00	2.00
	-9.00	-71.00	-196.00	4.00	116.00	15.00	3.00
	-11.00	-64.00	-160.00	-15.00	21.00	8.00	4.00
	-20.00	-40.00	-127.00	18.00	-68.00	0.00	3.00
	-17.00	21.00	-54.00	72.00	-153.00	-3.00	3.00
	-16.00	51.00	-13.00	80.00	-157.00	-5.00	0.00
	-6.00	50.00	41.00	33.00	-162.00	-8.00	-2.00
	-10.00	36.00	53.00	-35.00	-175.00	-7.00	-5.00
	-9.00	23.00	20.00	-51.00	-122.00	-4.00	-8.00
	1.00	10.00	-28.00	-48.00	-50.00	-5.00	-8.00
	3.00	-24.00	-54.00	-74.00	-2.00	-3.00	-13.00
	7.00	-54.00	-97.00	-130.00	70.00	-8.00	-14.00
	9.00	-54.00	-78.00	-108.00	123.00	-9.00	-18.00
	8.00	-36.00	25.00	-13.00	119.00	-4.00	-20.00
	0.00	6.00	62.00	52.00	146.00	5.00	-14.00
	6.00	50.00	49.00	83.00	127.00	10.00	-8.00
	4.00	82.00	43.00	77.00	149.00	7.00	-3.00
	11.00	80.00	39.00	88.00	194.00	9.00	-1.00
	11.00	40.00	22.00	88.00	145.00	8.00	1.00
	1.00	12.00	7.00	108.00	58.00	9.00	3.00
	5.00	-35.00	-23.00	57.00	21.00	12.00	2.00
	0.00	-88.00	42.00	15.00	-41.00	12.00	5.00
	-6.00	-91.00	91.00	31.00	-141.00	12.00	2.00
	-9.00	-33.00	83.00	74.00	-173.00	15.00	1.00
	-22.00	27.00	16.00	81.00	-196.00	15.00	3.00
	-17.00	58.00	-20.00	63.00	-133.00	11.00	-1.00
	-19.00	64.00	-11.00	49.00	-114.00	2.00	-7.00
	-21.00	111.00	-34.00	62.00	-121.00	-5.00	-10.00
	-13.00	118.00	-52.00	36.00	-69.00	0.00	-8.00
	-13.00	86.00	-68.00	5.00	0.00	1.00	-7.00
	-8.00	61.00	-46.00	-55.00	-3.00	3.00	-3.00
	-7.00	-17.00	-11.00	-131.00	29.00	2.00	0.00
	-5.00	-78.00	-37.00	-110.00	125.00	-2.00	2.00
	1.00	-53.00	-76.00	-63.00	196.00	0.00	3.00
	7.00	-45.00	-46.00	-9.00	225.00	2.00	3.00
	5.00	-48.00	-4.00	17.00	193.00	-4.00	4.00
	6.00	-66.00	3.00	37.00	171.00	-4.00	3.00
	15.00	-35.00	11.00	80.00	194.00	-1.00	6.00
	11.00	6.00	35.00	91.00	147.00	2.00	3.00
	-4.00	35.00	54.00	55.00	85.00	-1.00	2.00
	-2.00	59.00	80.00	54.00	78.00	3.00	3.00
	-3.00	78.00	112.00	99.00	34.00	9.00	5.00
	-11.00	78.00	110.00	65.00	-68.00	8.00	6.00
	-11.00	60.00	110.00	4.00	-221.00	12.00	5.00
	-21.00	44.00	104.00	-39.00	-313.00	6.00	2.00
	-21.00	24.00	90.00	-20.00	-290.00	4.00	2.00
	-21.00	37.00	77.00	-15.00	-276.00	6.00	-1.00
	-14.00	31.00	56.00	-15.00	-274.00	3.00	2.00
	-20.00	-21.00	54.00	-19.00	-246.00	-3.00	1.00
	-10.00	-61.00	52.00	-16.00	-158.00	-5.00	0.00
	-6.00	-76.00	51.00	13.00	-89.00	-3.00	0.00
	-7.00	-53.00	11.00	-26.00	-10.00	2.00	1.00
	-2.00	-27.00	-23.00	-59.00	56.00	12.00	1.00
	9.00	13.00	-15.00	-77.00	123.00	16.00	2.00
	12.00	45.00	-43.00	-61.00	234.00	17.00	3.00
	8.00	78.00	-61.00	4.00	257.00	17.00	4.00
	8.00	98.00	-74.00	9.00	239.00	16.00	4.00
	13.00	59.00	-23.00	-12.00	239.00	13.00	2.00
	7.00	4.00	22.00	-21.00	235.00	15.00	-1.00
	-6.00	-12.00	49.00	-7.00	180.00	23.00	-3.00
	-4.00	-41.00	79.00	-56.00	148.00	26.00	-3.00
	-16.00	-27.00	48.00	-44.00	70.00	26.00	-3.00
	-13.00	-8.00	-5.00	-48.00	-42.00	20.00	-3.00
	-20.00	10.00	-104.00	-57.00	-109.00	13.00	-2.00
	-33.00	19.00	-189.00	-47.00	-178.00	11.00	0.00
	-22.00	65.00	-241.00	-84.00	-159.00	4.00	3.00
	-21.00	47.00	-246.00	-97.00	-159.00	-1.00	6.00
	-14.00	4.00	-173.00	-103.00	-161.00	-4.00	7.00
	-11.00	23.00	-96.00	-95.00	-93.00	-7.00	5.00
	-11.00	13.00	-66.00	-11.00	-22.00	-11.00	6.00
	-5.00	-23.00	-51.00	95.00	-9.00	-11.00	7.00
	3.00	-20.00	-40.00	203.00	30.00	-11.00	0.00
	2.00	43.00	-14.00	153.00	76.00	-4.00	-5.00
	4.00	69.00	32.00	81.00	124.00	1.00	-5.00
	6.00	84.00	60.00	25.00	146.00	6.00	-6.00
	5.00	66.00	57.00	-10.00	131.00	12.00	-7.00
	-4.00	7.00	75.00	-50.00	155.00	6.00	-6.00
	-2.00	-28.00	101.00	-40.00	169.00	1.00	-8.00
	-4.00	-34.00	75.00	22.00	126.00	1.00	-8.00
	-7.00	-9.00	-18.00	86.00	84.00	6.00	-8.00
	-7.00	-4.00	-41.00	105.00	89.00	12.00	-2.00
	-15.00	-12.00	-2.00	77.00	79.00	17.00	-1.00
	-16.00	5.00	-9.00	44.00	15.00	11.00	-3.00
	-17.00	35.00	-70.00	9.00	-47.00	6.00	-9.00
	-12.00	48.00	-74.00	-9.00	-105.00	6.00	-16.00
	-9.00	39.00	-51.00	16.00	-137.00	9.00	-18.00
	-10.00	5.00	-26.00	62.00	-178.00	10.00	-13.00
	-10.00	-31.00	7.00	82.00	-234.00	2.00	-8.00
	-17.00	-40.00	62.00	97.00	-205.00	-3.00	-6.00
	-8.00	-41.00	62.00	71.00	-162.00	0.00	-5.00
	-10.00	-17.00	128.00	12.00	-116.00	10.00	-3.00
	2.00	63.00	174.00	-40.00	-59.00	12.00	0.00
	2.00	106.00	171.00	-53.00	4.00	14.00	3.00
	11.00	101.00	152.00	-103.00	72.00	16.00	6.00
	18.00	34.00	140.00	-117.00	135.00	16.00	6.00
	11.00	-26.00	99.00	-77.00	163.00	12.00	5.00
	8.00	-49.00	95.00	-22.00	182.00	12.00	5.00
	8.00	-32.00	26.00	3.00	233.00	10.00	4.00
	7.00	2.00	-14.00	15.00	213.00	12.00	12.00
	-3.00	-2.00	-25.00	11.00	126.00	0.00	10.00
	-2.00	2.00	-46.00	7.00	94.00	-8.00	8.00
	-7.00	18.00	-56.00	-14.00	48.00	-13.00	8.00
	-7.00	0.00	-98.00	-12.00	-36.00	-11.00	13.00
	-13.00	-10.00	-135.00	4.00	-154.00	-11.00	10.00
	-16.00	-25.00	-125.00	13.00	-262.00	-2.00	12.00
	-12.00	-36.00	-112.00	22.00	-223.00	2.00	9.00
	-17.00	-31.00	-78.00	46.00	-186.00	-2.00	6.00
	-13.00	-26.00	-68.00	12.00	-205.00	-2.00	4.00
	-10.00	6.00	-41.00	-11.00	-169.00	0.00	0.00
	0.00	27.00	-27.00	18.00	-67.00	-6.00	-1.00
	-1.00	49.00	-30.00	45.00	-19.00	-4.00	-1.00
	-2.00	56.00	9.00	71.00	23.00	-1.00	-1.00
	2.00	63.00	82.00	99.00	105.00	2.00	-7.00
	8.00	71.00	110.00	88.00	206.00	17.00	-8.00
	16.00	50.00	83.00	71.00	282.00	23.00	-12.00
	19.00	-17.00	5.00	37.00	303.00	27.00	-15.00
	15.00	-63.00	-17.00	14.00	300.00	18.00	-19.00
	16.00	-57.00	27.00	-9.00	290.00	7.00	-16.00
	7.00	-17.00	40.00	-62.00	244.00	2.00	-9.00
	-1.00	-8.00	28.00	-134.00	153.00	1.00	-6.00
	-2.00	9.00	7.00	-209.00	69.00	0.00	-5.00
	4.00	33.00	11.00	-244.00	-22.00	-1.00	-6.00
	-4.00	24.00	4.00	-182.00	-113.00	-6.00	-4.00
	-11.00	-17.00	-19.00	-94.00	-171.00	-6.00	-3.00
	-12.00	-52.00	-62.00	-44.00	-185.00	-3.00	-5.00
	-7.00	-92.00	-116.00	-23.00	-134.00	-3.00	-5.00
	-14.00	-115.00	-137.00	73.00	-127.00	-7.00	4.00
	-13.00	-34.00	-111.00	173.00	-159.00	-7.00	8.00
	-5.00	42.00	-14.00	117.00	-141.00	1.00	7.00
	6.00	86.00	11.00	59.00	-93.00	11.00	0.00
	4.00	112.00	8.00	32.00	-68.00	12.00	0.00
	4.00	124.00	23.00	39.00	-72.00	12.00	-1.00
	15.00	141.00	101.00	46.00	-17.00	10.00	1.00
	12.00	108.00	175.00	-38.00	79.00	8.00	2.00
	17.00	77.00	227.00	-91.00	162.00	7.00	4.00
	15.00	74.00	181.00	-56.00	121.00	5.00	4.00
	19.00	71.00	111.00	0.00	124.00	10.00	3.00
	18.00	54.00	62.00	64.00	173.00	13.00	4.00
	17.00	6.00	7.00	89.00	192.00	14.00	5.00
	10.00	-7.00	-55.00	102.00	158.00	12.00	7.00
	5.00	18.00	-65.00	107.00	95.00	16.00	6.00
	-2.00	16.00	-69.00	56.00	19.00	24.00	3.00
	-3.00	11.00	-106.00	10.00	-68.00	23.00	-1.00
	-6.00	-21.00	-87.00	28.00	-129.00	23.00	-5.00
	-10.00	-43.00	-58.00	104.00	-205.00	16.00	-4.00
	-13.00	-8.00	-48.00	126.00	-172.00	8.00	-2.00
	-6.00	7.00	-39.00	97.00	-150.00	2.00	0.00
	-12.00	-18.00	-10.00	69.00	-142.00	2.00	1.00
	-13.00	-38.00	-19.00	38.00	-99.00	6.00	2.00
	-8.00	-38.00	-54.00	-35.00	-80.00	3.00	-1.00
	-6.00	-60.00	-85.00	-98.00	-86.00	9.00	-1.00
	-2.00	-78.00	-60.00	-134.00	-56.00	2.00	0.00
	3.00	-90.00	-13.00	-118.00	32.00	-6.00	-2.00
	14.00	-77.00	19.00	-37.00	126.00	-4.00	-1.00
	9.00	-25.00	-4.00	65.00	183.00	-3.00	-1.00
	-2.00	16.00	-28.00	82.00	204.00	5.00	1.00
	-2.00	87.00	-73.00	14.00	178.00	4.00	4.00
	-5.00	137.00	-96.00	-42.00	180.00	-1.00	7.00
	-1.00	134.00	-108.00	-83.00	98.00	3.00	8.00
	-3.00	88.00	-43.00	-112.00	31.00	6.00	9.00
	-6.00	26.00	8.00	-105.00	0.00	3.00	7.00
	-7.00	-59.00	46.00	-107.00	-39.00	-1.00	5.00
	-13.00	-62.00	125.00	-97.00	-53.00	-8.00	5.00
	-17.00	7.00	165.00	-116.00	-76.00	-10.00	2.00
	-19.00	33.00	144.00	-92.00	-109.00	-18.00	2.00
	-16.00	41.00	123.00	-33.00	-74.00	-21.00	-2.00
	-14.00	53.00	70.00	-22.00	-50.00	-20.00	-3.00
	-15.00	61.00	50.00	-4.00	-45.00	-12.00	-1.00
	-15.00	37.00	34.00	67.00	-4.00	-8.00	-6.00
	0.00	6.00	-11.00	127.00	71.00	-1.00	-13.00
	-7.00	-46.00	-56.00	206.00	64.00	7.00	-13.00
	-6.00	-41.00	-107.00	226.00	61.00	6.00	-11.00
	8.00	-49.00	-82.00	171.00	78.00	3.00	-9.00
	6.00	-63.00	-60.00	165.00	116.00	-3.00	-4.00
	13.00	-46.00	-23.00	137.00	176.00	0.00	1.00
	15.00	-39.00	-27.00	24.00	201.00	5.00	1.00
	4.00	-16.00	0.00	-100.00	208.00	8.00	2.00
	18.00	-9.00	33.00	-190.00	219.00	10.00	3.00
	9.00	-6.00	63.00	-227.00	164.00	17.00	1.00
	2.00	40.00	67.00	-259.00	72.00	20.00	1.00
	7.00	102.00	9.00	-223.00	-6.00	20.00	2.00
	-3.00	171.00	-36.00	-157.00	-107.00	12.00	2.00
	-6.00	132.00	-37.00	-41.00	-180.00	5.00	-2.00
	-4.00	21.00	-17.00	125.00	-232.00	14.00	-1.00
	-15.00	-8.00	-22.00	223.00	-287.00	20.00	-1.00
	-20.00	-4.00	-32.00	188.00	-249.00	24.00	1.00
	-22.00	-25.00	43.00	191.00	-237.00	19.00	3.00
	-18.00	1.00	85.00	202.00	-223.00	14.00	7.00
	-18.00	46.00	46.00	108.00	-149.00	18.00	4.00
	-6.00	36.00	7.00	29.00	-46.00	22.00	-2.00
	-12.00	9.00	-36.00	-19.00	-1.00	22.00	-6.00
	-10.00	2.00	-76.00	-40.00	49.00	14.00	-4.00
	-4.00	31.00	-121.00	-40.00	77.00	8.00	-2.00
	1.00	47.00	-107.00	-17.00	135.00	3.00	-3.00
	12.00	29.00	-50.00	-16.00	208.00	4.00	2.00
	7.00	-11.00	-2.00	10.00	242.00	8.00	0.00
	-1.00	-26.00	43.00	31.00	237.00	11.00	0.00
	2.00	-8.00	99.00	46.00	226.00	9.00	-5.00
	-5.00	-1.00	133.00	74.00	167.00	8.00	-8.00
	-3.00	-23.00	139.00	60.00	115.00	5.00	-9.00
	-3.00	-45.00	105.00	24.00	72.00	1.00	-10.00
	0.00	-32.00	93.00	41.00	-2.00	8.00	-5.00
	-10.00	-28.00	62.00	19.00	-71.00	4.00	-8.00
	-13.00	-10.00	23.00	-48.00	-137.00	-1.00	-7.00
	-16.00	-11.00	1.00	-75.00	-219.00	-8.00	-4.00
	-11.00	21.00	38.00	-46.00	-237.00	-13.00	3.00
	-14.00	31.00	-19.00	-59.00	-271.00	-15.00	3.00
	-15.00	23.00	-77.00	-79.00	-280.00	-12.00	3.00
	-16.00	8.00	-111.00	-80.00	-228.00	-9.00	1.00
	-1.00	3.00	-104.00	-91.00	-113.00	-5.00	5.00
	-11.00	-17.00	-100.00	-118.00	-34.00	-5.00	6.00
	-1.00	-7.00	-8.00	-126.00	39.00	-5.00	5.00
	5.00	-5.00	32.00	-87.00	136.00	1.00	7.00
	5.00	11.00	4.00	-9.00	229.00	1.00	8.00
	7.00	43.00	-29.00	14.00	301.00	3.00	6.00
	10.00	19.00	-24.00	45.00	268.00	10.00	7.00
	4.00	21.00	7.00	74.00	237.00	10.00	9.00
	-1.00	46.00	6.00	116.00	259.00	6.00	7.00
	-4.00	82.00	-46.00	90.00	181.00	-3.00	4.00
	-3.00	85.00	-80.00	49.00	93.00	2.00	3.00
	0.00	100.00	-7.00	18.00	89.00	-4.00	3.00
	-2.00	65.00	52.00	26.00	89.00	-4.00	2.00
	-11.00	43.00	23.00	50.00	45.00	3.00	0.00
	-14.00	-26.00	-20.00	79.00	2.00	8.00	-2.00
	-18.00	-54.00	-68.00	121.00	-79.00	13.00	-2.00
	-12.00	-39.00	-33.00	120.00	-145.00	11.00	-8.00
	-10.00	-5.00	-35.00	68.00	-218.00	12.00	-12.00
	-6.00	9.00	-40.00	-41.00	-242.00	5.00	-19.00
	-9.00	12.00	29.00	-103.00	-203.00	-3.00	-16.00
	-8.00	43.00	14.00	-103.00	-130.00	-10.00	-7.00
	-4.00	59.00	-2.00	-97.00	-78.00	-16.00	-5.00
	-7.00	94.00	-16.00	-114.00	-23.00	-18.00	-3.00
	-3.00	111.00	0.00	-119.00	59.00	-14.00	-2.00
	4.00	83.00	3.00	-97.00	120.00	-11.00	-5.00
	7.00	69.00	18.00	-69.00	185.00	-4.00	5.00
	8.00	30.00	-9.00	-12.00	202.00	6.00	41.00
	14.00	-10.00	0.00	6.00	203.00	15.00	38.00
	16.00	-71.00	37.00	14.00	238.00	16.00	22.00
	7.00	-86.00	28.00	70.00	177.00	24.00	12.00
	3.00	-68.00	19.00	69.00	74.00	29.00	-1.00
	0.00	-127.00	39.00	87.00	44.00	25.00	-5.00
	-6.00	-154.00	67.00	105.00	-19.00	16.00	-7.00
	-5.00	-95.00	101.00	79.00	-66.00	22.00	-8.00
	-9.00	-64.00	62.00	67.00	-112.00	25.00	-8.00
	-13.00	-59.00	22.00	35.00	-186.00	22.00	-6.00
	-12.00	-38.00	2.00	-42.00	-175.00	15.00	-7.00
	-3.00	-35.00	18.00	-88.00	-160.00	9.00	-11.00
	-3.00	17.00	24.00	-50.00	-246.00	5.00	-19.00
	0.00	43.00	56.00	18.00	-213.00	-3.00	-27.00
	3.00	44.00	161.00	10.00	-98.00	-3.00	-26.00
	-4.00	36.00	256.00	41.00	-4.00	-8.00	-22.00
	-2.00	25.00	214.00	74.00	43.00	-5.00	-27.00
	2.00	6.00	148.00	54.00	102.00	4.00	-22.00
	-2.00	-5.00	76.00	50.00	167.00	15.00	-12.00
	2.00	-5.00	-26.00	70.00	225.00	15.00	-5.00
	6.00	-39.00	-132.00	5.00	188.00	14.00	-2.00
	1.00	-3.00	-179.00	-76.00	124.00	16.00	5.00
	6.00	71.00	-227.00	-85.00	167.00	15.00	12.00
	-4.00	122.00	-198.00	-90.00	169.00	19.00	13.00
	-10.00	118.00	-112.00	-43.00	112.00	10.00	20.00
	-17.00	111.00	-20.00	-28.00	70.00	2.00	18.00
	-14.00	125.00	27.00	-21.00	-24.00	-1.00	13.00
	-22.00	72.00	-27.00	7.00	-115.00	-1.00	10.00
	-16.00	45.00	-127.00	46.00	-157.00	-1.00	11.00
	-21.00	47.00	-202.00	70.00	-209.00	2.00	7.00
	-17.00	103.00	-242.00	86.00	-205.00	2.00	3.00
	-17.00	124.00	-248.00	109.00	-170.00	7.00	3.00
	-15.00	108.00	-235.00	92.00	-157.00	5.00	2.00
	-6.00	57.00	-193.00	39.00	-104.00	10.00	3.00
	-9.00	70.00	-37.00	-16.00	-55.00	12.00	4.00
	-3.00	31.00	113.00	-40.00	-32.00	6.00	4.00
	-3.00	-13.00	148.00	-35.00	17.00	-6.00	3.00
	-1.00	-42.00	158.00	-17.00	93.00	-13.00	2.00
	9.00	-67.00	152.00	33.00	152.00	-14.00	0.00
	14.00	-54.00	104.00	71.00	220.00	-8.00	4.00
	8.00	-45.00	65.00	43.00	202.00	-5.00	8.00
	6.00	-65.00	63.00	-21.00	187.00	-1.00	10.00
	-1.00	-83.00	74.00	-78.00	209.00	5.00	5.00
	-3.00	-71.00	59.00	-139.00	211.00	15.00	4.00
	-4.00	-10.00	48.00	-142.00	157.00	15.00	3.00
	-6.00	16.00	47.00	-84.00	119.00	11.00	6.00
	-14.00	-4.00	-41.00	0.00	58.00	9.00	2.00
	-12.00	-22.00	-124.00	59.00	-28.00	23.00	4.00
	-18.00	16.00	-165.00	135.00	-121.00	28.00	2.00
	-24.00	33.00	-181.00	89.00	-226.00	20.00	2.00
	-19.00	-17.00	-127.00	7.00	-252.00	18.00	1.00
	-9.00	-23.00	-68.00	-65.00	-250.00	14.00	-2.00
	-11.00	-1.00	4.00	-110.00	-282.00	3.00	-2.00
	-7.00	-16.00	78.00	-86.00	-240.00	-8.00	-3.00
	-8.00	-2.00	102.00	-63.00	-117.00	-13.00	-6.00
	-5.00	22.00	100.00	0.00	-51.00	-12.00	-8.00
	-7.00	28.00	117.00	34.00	11.00	-8.00	-7.00
	2.00	1.00	128.00	23.00	101.00	-4.00	-6.00
	0.00	-32.00	137.00	-37.00	170.00	-3.00	-7.00
	17.00	-54.00	187.00	-52.00	214.00	-2.00	-5.00
	18.00	-28.00	162.00	-26.00	235.00	14.00	0.00
	14.00	-30.00	131.00	22.00	213.00	30.00	0.00
	17.00	-35.00	111.00	94.00	203.00	27.00	-1.00
	11.00	-60.00	38.00	111.00	138.00	16.00	-1.00
	7.00	-17.00	12.00	149.00	79.00	19.00	3.00
	-8.00	32.00	0.00	127.00	55.00	19.00	2.00
	0.00	25.00	-27.00	54.00	0.00	23.00	5.00
	-7.00	-18.00	-37.00	19.00	-89.00	17.00	4.00
	-7.00	2.00	1.00	-11.00	-166.00	6.00	5.00
	-12.00	-14.00	36.00	-58.00	-196.00	-6.00	3.00
	-14.00	-50.00	23.00	-137.00	-145.00	-6.00	3.00
	-17.00	-49.00	51.00	-167.00	-117.00	-7.00	2.00
	10.00	11.00	41.00	-139.00	-126.00	-10.00	1.00
	-12.00	52.00	8.00	-126.00	-105.00	-12.00	2.00
	2.00	113.00	-59.00	-81.00	-26.00	-7.00	2.00
	8.00	128.00	-95.00	-29.00	0.00	-7.00	-4.00
	1.00	139.00	-117.00	2.00	24.00	-5.00	-9.00
	13.00	138.00	-122.00	76.00	15.00	0.00	-14.00
	2.00	119.00	-60.00	133.00	73.00	-3.00	-11.00
	3.00	117.00	-5.00	146.00	162.00	-2.00	-2.00
	8.00	119.00	-1.00	176.00	195.00	6.00	2.00
	6.00	39.00	-50.00	168.00	230.00	18.00	0.00
	9.00	15.00	-65.00	155.00	288.00	22.00	0.00
	0.00	46.00	-66.00	98.00	232.00	16.00	0.00
	-5.00	89.00	-72.00	11.00	154.00	14.00	-2.00
	-12.00	59.00	-96.00	-28.00	102.00	16.00	0.00
	-8.00	24.00	-102.00	-24.00	58.00	13.00	5.00
	-9.00	26.00	-51.00	-24.00	18.00	15.00	4.00
	-8.00	-20.00	27.00	-58.00	-17.00	9.00	4.00
	-24.00	-58.00	55.00	-71.00	-125.00	-1.00	1.00
	-22.00	-60.00	26.00	-23.00	-195.00	-9.00	-1.00
	-12.00	-24.00	-19.00	36.00	-258.00	-12.00	-2.00
	-11.00	-6.00	-55.00	22.00	-323.00	-8.00	-3.00
	-13.00	-14.00	-41.00	31.00	-298.00	-4.00	0.00
	-10.00	9.00	-26.00	56.00	-207.00	-2.00	1.00
	-7.00	32.00	-32.00	24.00	-137.00	1.00	0.00
	-5.00	31.00	19.00	-33.00	-69.00	2.00	-3.00
	4.00	16.00	74.00	-63.00	19.00	7.00	-5.00
	4.00	-48.00	111.00	-94.00	92.00	3.00	-5.00
	9.00	-82.00	110.00	-107.00	206.00	7.00	2.00
	13.00	-74.00	98.00	-104.00	261.00	6.00	2.00
	22.00	-53.00	22.00	-23.00	257.00	10.00	5.00
	17.00	-31.00	-20.00	81.00	285.00	9.00	4.00
	0.00	-18.00	-32.00	99.00	253.00	10.00	2.00
	0.00	-32.00	-42.00	45.00	130.00	7.00	1.00
	-2.00	-80.00	-9.00	-6.00	90.00	7.00	2.00
	-3.00	-83.00	49.00	-85.00	58.00	-4.00	-1.00
	-12.00	-15.00	31.00	-115.00	-6.00	-10.00	-1.00
	-14.00	31.00	-16.00	-121.00	-54.00	-8.00	-1.00
	-14.00	27.00	-36.00	-79.00	-142.00	-13.00	-1.00
	-23.00	4.00	-65.00	-19.00	-140.00	-19.00	1.00
	-26.00	21.00	-60.00	41.00	-143.00	-14.00	3.00
	-25.00	57.00	-70.00	110.00	-171.00	-7.00	2.00
	-15.00	21.00	-105.00	139.00	-153.00	-2.00	2.00
	-3.00	-40.00	-29.00	147.00	-93.00	2.00	1.00
	-4.00	-116.00	62.00	110.00	-44.00	11.00	2.00
	-6.00	-97.00	85.00	5.00	-5.00	10.00	-2.00
	2.00	-26.00	94.00	-31.00	66.00	6.00	0.00
	4.00	8.00	71.00	-39.00	121.00	9.00	-2.00
	3.00	26.00	37.00	-23.00	174.00	12.00	-2.00
	7.00	68.00	18.00	-15.00	144.00	12.00	-5.00
	9.00	146.00	53.00	18.00	98.00	13.00	2.00
	13.00	181.00	36.00	-6.00	130.00	17.00	4.00
	11.00	171.00	32.00	-22.00	109.00	21.00	6.00
	7.00	172.00	55.00	-76.00	88.00	19.00	5.00
	6.00	157.00	71.00	-61.00	81.00	23.00	6.00
	-2.00	110.00	68.00	2.00	-47.00	23.00	3.00
	1.00	59.00	38.00	42.00	-172.00	26.00	1.00
	-3.00	34.00	12.00	90.00	-216.00	29.00	1.00
	-10.00	6.00	-39.00	104.00	-303.00	28.00	3.00
	-6.00	-68.00	-59.00	57.00	-254.00	24.00	3.00
	-16.00	-126.00	-76.00	25.00	-191.00	23.00	3.00
	-14.00	-123.00	-103.00	7.00	-164.00	18.00	3.00
	-10.00	-69.00	-109.00	-48.00	-85.00	10.00	3.00
	-6.00	0.00	-70.00	-82.00	-10.00	4.00	0.00
	-7.00	39.00	26.00	-110.00	4.00	-4.00	0.00
	-9.00	38.00	106.00	-111.00	48.00	-8.00	3.00
	-5.00	13.00	104.00	-96.00	142.00	-2.00	-1.00
	-6.00	32.00	99.00	-52.00	209.00	3.00	-1.00
	7.00	72.00	71.00	-37.00	302.00	0.00	-8.00
	8.00	92.00	-17.00	-5.00	260.00	7.00	-12.00
	3.00	45.00	-95.00	37.00	222.00	5.00	-14.00
	-4.00	-3.00	-151.00	62.00	283.00	11.00	-10.00
	-2.00	-25.00	-154.00	46.00	265.00	7.00	-6.00
	-5.00	-43.00	-72.00	52.00	177.00	-2.00	-2.00
	-9.00	-57.00	-41.00	55.00	111.00	-1.00	-2.00
	-11.00	-62.00	3.00	9.00	81.00	-6.00	-2.00
	-16.00	-65.00	54.00	-32.00	-37.00	-11.00	-2.00
	-8.00	-47.00	64.00	-38.00	-136.00	-22.00	1.00
	-15.00	-39.00	15.00	24.00	-204.00	-27.00	1.00
	-7.00	-24.00	-28.00	82.00	-176.00	-19.00	3.00
	-11.00	10.00	-67.00	120.00	-138.00	-5.00	0.00
	-16.00	32.00	-40.00	129.00	-170.00	3.00	4.00
	-8.00	32.00	-20.00	146.00	-176.00	2.00	5.00
	3.00	46.00	-30.00	136.00	-156.00	0.00	5.00
	3.00	57.00	-53.00	124.00	-142.00	-2.00	1.00
	-3.00	67.00	-48.00	97.00	-136.00	1.00	1.00
	1.00	58.00	-32.00	65.00	-55.00	4.00	-2.00
	-2.00	35.00	-20.00	32.00	45.00	9.00	0.00
	4.00	-13.00	18.00	97.00	135.00	8.00	-2.00
	4.00	-52.00	29.00	62.00	145.00	1.00	2.00
	5.00	-79.00	88.00	-49.00	143.00	-6.00	5.00
	11.00	-115.00	152.00	-185.00	186.00	-3.00	9.00
	7.00	-116.00	155.00	-248.00	196.00	2.00	13.00
	-1.00	-108.00	175.00	-287.00	136.00	-8.00	9.00
	-4.00	-64.00	166.00	-247.00	84.00	-1.00	9.00
	-11.00	-18.00	112.00	-166.00	52.00	13.00	7.00
	-13.00	4.00	44.00	-15.00	-18.00	18.00	3.00
	-21.00	8.00	-28.00	115.00	-66.00	24.00	0.00
	-23.00	32.00	-52.00	160.00	-136.00	20.00	-2.00
	-17.00	91.00	-64.00	155.00	-124.00	14.00	-1.00
	-12.00	134.00	-125.00	87.00	-131.00	8.00	1.00
	-12.00	128.00	-162.00	20.00	-156.00	9.00	3.00
	-3.00	102.00	-106.00	-33.00	-122.00	7.00	-4.00
	-2.00	61.00	-39.00	-23.00	-60.00	4.00	-6.00
	4.00	71.00	-8.00	-37.00	-42.00	2.00	-9.00
	7.00	79.00	32.00	-42.00	14.00	1.00	-7.00
	14.00	67.00	58.00	-61.00	77.00	1.00	-8.00
	11.00	96.00	70.00	-94.00	113.00	1.00	0.00
	16.00	97.00	54.00	-53.00	193.00	5.00	9.00
	16.00	73.00	13.00	6.00	210.00	12.00	11.00
	8.00	48.00	-29.00	79.00	189.00	16.00	16.00
	6.00	57.00	-44.00	171.00	214.00	15.00	15.00
	11.00	38.00	-54.00	156.00	149.00	16.00	12.00
	5.00	16.00	-88.00	115.00	98.00	20.00	8.00
	0.00	-29.00	-124.00	78.00	96.00	20.00	3.00
	-1.00	-39.00	-140.00	17.00	34.00	15.00	0.00
	-1.00	-28.00	-99.00	-40.00	-64.00	1.00	-5.00
	0.00	-20.00	-45.00	-94.00	-147.00	-11.00	-12.00
	-5.00	-64.00	16.00	-132.00	-207.00	-16.00	-14.00
	-11.00	-71.00	73.00	-114.00	-178.00	-14.00	-12.00
	-5.00	-60.00	115.00	-44.00	-152.00	-8.00	-12.00
	-8.00	-57.00	68.00	-4.00	-188.00	-5.00	-18.00
	-9.00	-50.00	54.00	-7.00	-173.00	-2.00	-23.00
	-6.00	-20.00	57.00	1.00	-126.00	2.00	-25.00
	-10.00	-3.00	32.00	58.00	-55.00	8.00	-15.00
	-5.00	1.00	51.00	5.00	20.00	9.00	-10.00
	0.00	32.00	50.00	-47.00	119.00	2.00	-10.00
	-2.00	73.00	-11.00	-99.00	171.00	-1.00	-9.00
	1.00	78.00	-36.00	-88.00	234.00	-2.00	-4.00
	-1.00	57.00	-87.00	-79.00	235.00	0.00	-5.00
	3.00	28.00	-90.00	-88.00	226.00	6.00	-5.00
	3.00	25.00	-49.00	-76.00	246.00	15.00	-1.00
	-1.00	40.00	13.00	-66.00	191.00	19.00	0.00
	-5.00	36.00	85.00	-46.00	77.00	18.00	1.00
	-8.00	38.00	77.00	-22.00	23.00	21.00	5.00
	-14.00	8.00	56.00	19.00	-48.00	17.00	6.00
	-13.00	14.00	55.00	49.00	-88.00	13.00	5.00
	-13.00	-11.00	51.00	85.00	-100.00	10.00	3.00
	-30.00	-39.00	86.00	127.00	-166.00	3.00	7.00
	-18.00	-42.00	39.00	174.00	-153.00	-5.00	5.00
	-15.00	-21.00	-61.00	184.00	-117.00	-2.00	6.00
	-12.00	-14.00	-60.00	138.00	-148.00	3.00	9.00
	-8.00	-12.00	-20.00	73.00	-140.00	9.00	7.00
	-7.00	-13.00	-17.00	32.00	-39.00	4.00	4.00
	-2.00	-45.00	5.00	44.00	6.00	4.00	6.00
	1.00	-81.00	101.00	-4.00	51.00	3.00	7.00
	11.00	-55.00	127.00	-43.00	105.00	-6.00	5.00
	11.00	-4.00	105.00	6.00	133.00	-2.00	6.00
	22.00	24.00	72.00	61.00	169.00	5.00	8.00
	17.00	29.00	19.00	80.00	172.00	4.00	8.00
	18.00	56.00	-34.00	90.00	148.00	6.00	9.00
	4.00	74.00	-74.00	65.00	166.00	8.00	5.00
	6.00	98.00	-122.00	65.00	119.00	13.00	4.00
	-7.00	104.00	-178.00	62.00	39.00	21.00	5.00
	-8.00	121.00	-204.00	7.00	-23.00	20.00	5.00
	-9.00	119.00	-192.00	-99.00	-69.00	16.00	7.00
	-10.00	60.00	-218.00	-104.00	-116.00	10.00	4.00
	-11.00	26.00	-185.00	-46.00	-136.00	8.00	1.00
	-10.00	-5.00	-117.00	-23.00	-167.00	11.00	1.00
	-10.00	-46.00	-61.00	-18.00	-143.00	10.00	3.00
	-12.00	-77.00	5.00	-39.00	-148.00	4.00	2.00
	-14.00	-113.00	40.00	-72.00	-187.00	-3.00	0.00
	-18.00	-129.00	64.00	-71.00	-176.00	-9.00	-4.00
	-19.00	-95.00	101.00	-70.00	-134.00	-5.00	-7.00
	-10.00	-51.00	107.00	-46.00	-105.00	-3.00	-8.00
	-5.00	27.00	126.00	67.00	-48.00	1.00	-5.00
	3.00	108.00	147.00	118.00	21.00	2.00	-3.00
	6.00	147.00	155.00	133.00	99.00	1.00	-2.00
	11.00	120.00	125.00	161.00	194.00	1.00	1.00
	10.00	42.00	149.00	121.00	226.00	7.00	-1.00
	10.00	14.00	129.00	62.00	228.00	14.00	-1.00
	6.00	16.00	79.00	-11.00	227.00	12.00	-4.00
	5.00	11.00	72.00	-105.00	155.00	11.00	-3.00
	5.00	-5.00	68.00	-220.00	54.00	8.00	-1.00
	-2.00	-12.00	68.00	-264.00	49.00	2.00	-3.00
	-3.00	38.00	12.00	-250.00	30.00	-3.00	1.00
	-9.00	37.00	-19.00	-195.00	-59.00	-9.00	1.00
	0.00	16.00	-25.00	-103.00	-99.00	-13.00	0.00
	-12.00	-2.00	-35.00	-59.00	-153.00	-11.00	3.00
	-10.00	20.00	-5.00	-3.00	-118.00	-7.00	-3.00
	-13.00	22.00	-23.00	62.00	-94.00	1.00	-3.00
	-10.00	6.00	-41.00	115.00	-116.00	5.00	-3.00
	-3.00	-30.00	28.00	126.00	-55.00	6.00	-6.00
	1.00	-56.00	62.00	85.00	7.00	10.00	-4.00
	4.00	-50.00	34.00	-6.00	42.00	11.00	1.00
	11.00	-27.00	-21.00	-97.00	37.00	-3.00	-2.00
	12.00	-17.00	-64.00	-122.00	65.00	-13.00	-5.00
	20.00	-31.00	-114.00	-120.00	113.00	-9.00	-7.00
	27.00	-80.00	-138.00	-112.00	188.00	-8.00	-3.00
	38.00	-130.00	-117.00	-50.00	234.00	-8.00	-7.00
	34.00	-120.00	-111.00	93.00	223.00	0.00	-9.00
	34.00	-63.00	-85.00	215.00	255.00	10.00	-5.00
	38.00	-21.00	-82.00	305.00	226.00	28.00	-2.00
	37.00	-27.00	-104.00	315.00	112.00	34.00	-1.00
	48.00	17.00	-132.00	256.00	24.00	32.00	3.00
	40.00	74.00	-154.00	161.00	-68.00	42.00	5.00
	29.00	92.00	-135.00	70.00	-163.00	36.00	6.00
	8.00	100.00	-73.00	34.00	-220.00	22.00	5.00
	-22.00	103.00	-25.00	58.00	-270.00	14.00	2.00
	-28.00	77.00	14.00	55.00	-228.00	3.00	3.00
	-52.00	90.00	57.00	-30.00	-195.00	-2.00	4.00
	-67.00	96.00	110.00	-121.00	-210.00	-4.00	2.00
	-78.00	83.00	132.00	-135.00	-158.00	-8.00	2.00
	-77.00	65.00	133.00	-111.00	-68.00	-13.00	2.00
	-82.00	62.00	134.00	-115.00	-2.00	-4.00	2.00
	-79.00	68.00	133.00	-120.00	56.00	-5.00	-2.00
	-75.00	47.00	89.00	-47.00	117.00	-3.00	-4.00
	-79.00	40.00	57.00	20.00	170.00	2.00	-4.00
	-75.00	1.00	55.00	46.00	247.00	4.00	0.00
	-83.00	-17.00	34.00	43.00	237.00	7.00	-1.00
	-89.00	-23.00	35.00	34.00	196.00	3.00	-3.00
	-71.00	-15.00	49.00	29.00	188.00	6.00	-1.00
	-65.00	-12.00	48.00	-3.00	171.00	10.00	-3.00
	-63.00	2.00	84.00	-100.00	125.00	6.00	-4.00
	-70.00	-3.00	131.00	-168.00	65.00	-2.00	-4.00
	-68.00	-13.00	62.00	-129.00	-7.00	-5.00	-6.00
	-61.00	-20.00	36.00	-20.00	-120.00	-8.00	-9.00
	-53.00	4.00	-24.00	4.00	-183.00	-3.00	-12.00
	-48.00	27.00	-101.00	11.00	-253.00	-3.00	-10.00
	-24.00	42.00	-179.00	50.00	-248.00	-4.00	-4.00
	-13.00	46.00	-182.00	114.00	-204.00	5.00	0.00
	-15.00	78.00	-198.00	130.00	-224.00	14.00	-1.00
	-17.00	123.00	-222.00	52.00	-218.00	11.00	-1.00
	-16.00	137.00	-185.00	6.00	-130.00	12.00	2.00
	-2.00	142.00	-152.00	-34.00	-89.00	7.00	4.00
	16.00	152.00	-85.00	-62.00	-49.00	6.00	2.00
	42.00	126.00	-17.00	-83.00	57.00	7.00	4.00
	59.00	81.00	18.00	-120.00	142.00	5.00	3.00
	90.00	39.00	68.00	-81.00	253.00	8.00	6.00
	112.00	-39.00	118.00	24.00	297.00	14.00	4.00
	118.00	-105.00	148.00	88.00	259.00	12.00	2.00
	130.00	-150.00	153.00	118.00	228.00	16.00	5.00
	138.00	-188.00	127.00	119.00	213.00	20.00	8.00
	132.00	-180.00	61.00	112.00	168.00	19.00	40.00
	134.00	-94.00	56.00	94.00	138.00	14.00	55.00
	120.00	11.00	44.00	22.00	105.00	8.00	32.00
	108.00	-17.00	15.00	-58.00	40.00	3.00	16.00
	96.00	-66.00	-14.00	-62.00	-14.00	-1.00	2.00
	81.00	-87.00	45.00	-28.00	-101.00	-7.00	-14.00
	76.00	-85.00	111.00	-42.00	-147.00	-9.00	-25.00
	71.00	-50.00	145.00	25.00	-184.00	-6.00	-28.00
	57.00	-9.00	107.00	83.00	-228.00	-2.00	-28.00
	49.00	-11.00	28.00	49.00	-221.00	6.00	-23.00
	42.00	-2.00	-29.00	-11.00	-143.00	7.00	-19.00
	28.00	46.00	-73.00	-37.00	-79.00	5.00	-21.00
	15.00	61.00	-107.00	-6.00	-25.00	4.00	-19.00
	10.00	45.00	-142.00	-44.00	50.00	11.00	-11.00
	5.00	44.00	-89.00	-92.00	89.00	9.00	-8.00
	1.00	47.00	-17.00	-69.00	136.00	8.00	-5.00
	-3.00	79.00	51.00	-6.00	102.00	7.00	-5.00
	-16.00	79.00	70.00	71.00	87.00	5.00	-2.00
	-25.00	56.00	56.00	81.00	153.00	10.00	-1.00
	-25.00	39.00	19.00	43.00	187.00	13.00	-4.00
	-33.00	-2.00	-41.00	-25.00	159.00	11.00	-5.00
	-39.00	-37.00	-97.00	-41.00	132.00	12.00	-2.00
	-49.00	-59.00	-74.00	-28.00	80.00	13.00	-1.00
	-61.00	-58.00	-83.00	-18.00	10.00	9.00	2.00
	-57.00	-69.00	-96.00	-49.00	-46.00	4.00	4.00
	-59.00	-61.00	-31.00	-67.00	-137.00	2.00	6.00
	-56.00	-9.00	35.00	-26.00	-153.00	-3.00	6.00
	-54.00	51.00	53.00	7.00	-145.00	-1.00	6.00
	-51.00	78.00	40.00	9.00	-210.00	-3.00	5.00
	-47.00	94.00	11.00	-6.00	-213.00	-10.00	6.00
	-45.00	126.00	-16.00	-54.00	-131.00	-10.00	4.00
	-38.00	145.00	-63.00	-107.00	-66.00	-10.00	5.00
	-35.00	128.00	-88.00	-76.00	-30.00	-10.00	4.00
	-41.00	57.00	-68.00	-20.00	27.00	-2.00	-2.00
	-33.00	24.00	-11.00	22.00	101.00	0.00	-2.00
	-24.00	8.00	79.00	49.00	196.00	0.00	4.00
	-20.00	16.00	117.00	76.00	216.00	6.00	6.00
	-22.00	0.00	121.00	117.00	196.00	9.00	5.00
	-21.00	-8.00	95.00	86.00	230.00	17.00	4.00
	-16.00	-8.00	68.00	65.00	250.00	19.00	3.00
	-14.00	-18.00	76.00	58.00	193.00	21.00	2.00
	-22.00	-34.00	25.00	72.00	162.00	20.00	-4.00
	-26.00	-61.00	-21.00	64.00	93.00	14.00	-6.00
	-27.00	-60.00	-55.00	82.00	-25.00	12.00	-3.00
	-22.00	-75.00	-143.00	86.00	-176.00	9.00	-2.00
	-24.00	-56.00	-154.00	76.00	-295.00	0.00	-2.00
	-27.00	6.00	-101.00	80.00	-293.00	-8.00	-4.00
	-25.00	66.00	-46.00	106.00	-263.00	-7.00	-4.00
	-27.00	47.00	-6.00	125.00	-289.00	-7.00	-4.00
	-28.00	20.00	45.00	140.00	-269.00	-1.00	-3.00
	-19.00	-5.00	103.00	135.00	-174.00	7.00	-2.00
	-23.00	-4.00	111.00	41.00	-88.00	7.00	-4.00
	-17.00	5.00	107.00	-87.00	6.00	4.00	-5.00
	-10.00	24.00	84.00	-134.00	141.00	6.00	-4.00
	-4.00	13.00	51.00	-165.00	207.00	6.00	-2.00
	2.00	-24.00	51.00	-252.00	244.00	5.00	-2.00
	4.00	-36.00	47.00	-261.00	242.00	4.00	-3.00
	3.00	3.00	5.00	-120.00	214.00	8.00	0.00
	9.00	27.00	-59.00	-41.00	259.00	10.00	3.00
	4.00	40.00	-99.00	36.00	250.00	25.00	4.00
	-4.00	60.00	-119.00	48.00	146.00	28.00	1.00
	0.00	65.00	-122.00	17.00	101.00	22.00	0.00
	1.00	98.00	-133.00	7.00	71.00	18.00	4.00
	-2.00	68.00	-99.00	-32.00	2.00	11.00	3.00
	2.00	17.00	-43.00	-65.00	-43.00	3.00	4.00
	-8.00	-38.00	33.00	-89.00	-124.00	-2.00	9.00
	-12.00	-87.00	114.00	-53.00	-155.00	-10.00	6.00
	-16.00	-101.00	93.00	1.00	-176.00	-7.00	4.00
	-17.00	-110.00	84.00	9.00	-279.00	-8.00	3.00
	-12.00	-105.00	76.00	-12.00	-279.00	-5.00	5.00
	-4.00	-31.00	56.00	0.00	-183.00	-4.00	3.00
	7.00	72.00	25.00	42.00	-100.00	-1.00	0.00
	6.00	111.00	0.00	36.00	-22.00	2.00	-4.00
	5.00	140.00	-49.00	-23.00	69.00	4.00	-8.00
	6.00	142.00	-47.00	-45.00	126.00	5.00	-11.00
	12.00	98.00	-40.00	-27.00	198.00	5.00	-10.00
	13.00	74.00	-56.00	-9.00	216.00	10.00	-9.00
	16.00	51.00	-81.00	76.00	206.00	21.00	-10.00
	17.00	28.00	-101.00	148.00	244.00	18.00	-13.00
	21.00	39.00	-67.00	149.00	224.00	21.00	-16.00
	15.00	33.00	14.00	85.00	151.00	18.00	-20.00
	6.00	-4.00	58.00	27.00	93.00	14.00	-13.00
	9.00	-58.00	53.00	-2.00	13.00	12.00	-9.00
	2.00	-90.00	74.00	12.00	-96.00	12.00	-5.00
	-7.00	-51.00	78.00	-31.00	-154.00	11.00	-1.00
	-14.00	6.00	98.00	-66.00	-227.00	0.00	-3.00
	-19.00	50.00	54.00	-40.00	-197.00	-5.00	-2.00
	-13.00	39.00	-8.00	-14.00	-147.00	-5.00	-2.00
	-11.00	-26.00	-41.00	-35.00	-149.00	-6.00	-1.00
	-3.00	-64.00	-30.00	-79.00	-141.00	-14.00	4.00
	-9.00	-56.00	-22.00	-65.00	-104.00	-19.00	6.00
	-6.00	-52.00	-5.00	-17.00	-135.00	-17.00	10.00
	-9.00	-15.00	-14.00	16.00	-117.00	-8.00	13.00
	0.00	5.00	3.00	46.00	-24.00	3.00	12.00
	3.00	19.00	8.00	9.00	52.00	10.00	13.00
	11.00	24.00	27.00	-7.00	168.00	7.00	12.00
	8.00	-12.00	51.00	-25.00	228.00	11.00	8.00
	11.00	-39.00	66.00	-25.00	234.00	10.00	4.00
	-1.00	-18.00	36.00	33.00	269.00	7.00	4.00
	3.00	11.00	2.00	121.00	246.00	8.00	0.00
	3.00	34.00	-29.00	140.00	163.00	14.00	-3.00
	-5.00	25.00	-15.00	157.00	137.00	24.00	-3.00
	1.00	52.00	49.00	147.00	75.00	25.00	-3.00
	-2.00	116.00	98.00	130.00	-16.00	24.00	-4.00
	-2.00	154.00	79.00	101.00	-90.00	10.00	-6.00
	-6.00	113.00	55.00	47.00	-180.00	-1.00	-6.00
	-3.00	9.00	14.00	67.00	-190.00	-11.00	-2.00
	-4.00	-66.00	-42.00	64.00	-180.00	-14.00	0.00
	-4.00	-67.00	-103.00	45.00	-208.00	-12.00	-3.00
	-8.00	-79.00	-129.00	44.00	-203.00	-9.00	-7.00
	-3.00	-70.00	-162.00	-41.00	-109.00	-6.00	-10.00
	-2.00	-53.00	-189.00	-143.00	10.00	-3.00	-14.00
	-10.00	-11.00	-188.00	-192.00	100.00	-5.00	-16.00
	-3.00	53.00	-154.00	-179.00	137.00	-15.00	-18.00
	14.00	73.00	-78.00	-160.00	161.00	-20.00	-20.00
	18.00	73.00	-34.00	-106.00	245.00	-10.00	-13.00
	5.00	90.00	-2.00	-20.00	276.00	2.00	-10.00
	4.00	97.00	1.00	9.00	251.00	12.00	-5.00
	5.00	67.00	37.00	15.00	252.00	13.00	-4.00
	7.00	18.00	46.00	-49.00	203.00	14.00	-2.00
	0.00	2.00	13.00	-4.00	92.00	19.00	0.00
	2.00	15.00	121.00	34.00	37.00	19.00	0.00
	-4.00	14.00	195.00	11.00	-14.00	14.00	2.00
	-8.00	-20.00	176.00	0.00	-49.00	5.00	2.00
	-5.00	-24.00	129.00	-30.00	-95.00	-3.00	8.00
	-5.00	8.00	127.00	-53.00	-202.00	-15.00	10.00
	-10.00	14.00	106.00	-50.00	-222.00	-14.00	10.00
	-6.00	1.00	77.00	-70.00	-217.00	-11.00	10.00
	-14.00	13.00	3.00	-54.00	-236.00	3.00	8.00
	-11.00	52.00	-68.00	-26.00	-201.00	13.00	11.00
	-13.00	81.00	-45.00	1.00	-145.00	13.00	10.00
	-13.00	84.00	-39.00	10.00	-90.00	13.00	6.00
	-7.00	60.00	-38.00	14.00	-26.00	21.00	8.00
	1.00	29.00	-39.00	38.00	80.00	28.00	8.00
	4.00	-23.00	-82.00	44.00	158.00	30.00	6.00
	5.00	-74.00	-76.00	65.00	222.00	25.00	-1.00
	4.00	-99.00	-58.00	80.00	230.00	24.00	-6.00
	11.00	-90.00	-23.00	83.00	195.00	19.00	-12.00
	10.00	-86.00	18.00	86.00	213.00	19.00	-15.00
	5.00	-27.00	7.00	81.00	182.00	18.00	-14.00
	8.00	6.00	-26.00	75.00	137.00	20.00	-12.00
	-1.00	29.00	-20.00	72.00	74.00	16.00	-8.00
	-7.00	19.00	7.00	97.00	-16.00	8.00	-8.00
	-9.00	22.00	-5.00	117.00	-143.00	2.00	-2.00
	-11.00	36.00	-78.00	35.00	-192.00	-1.00	-1.00
	-21.00	33.00	-96.00	-46.00	-255.00	-2.00	2.00
	-21.00	8.00	-44.00	-121.00	-232.00	-4.00	2.00
	-20.00	-29.00	18.00	-168.00	-174.00	-10.00	2.00
	-18.00	-31.00	130.00	-175.00	-155.00	-14.00	1.00
	-18.00	-5.00	172.00	-138.00	-113.00	-17.00	-3.00
	-7.00	-25.00	136.00	-64.00	-46.00	-9.00	-3.00
	-6.00	-36.00	130.00	-12.00	-7.00	4.00	-2.00
	-1.00	15.00	82.00	20.00	35.00	7.00	-3.00
	-1.00	45.00	60.00	56.00	96.00	-1.00	-3.00
	9.00	31.00	57.00	59.00	121.00	-6.00	1.00
	9.00	-10.00	16.00	40.00	188.00	-11.00	-2.00
	4.00	-10.00	-15.00	43.00	191.00	1.00	1.00
	3.00	11.00	-86.00	9.00	126.00	8.00	2.00
	8.00	14.00	-155.00	6.00	115.00	13.00	2.00
	5.00	18.00	-113.00	9.00	81.00	12.00	3.00
	3.00	-1.00	-21.00	-56.00	20.00	15.00	4.00
	-3.00	8.00	18.00	-89.00	6.00	6.00	0.00
	1.00	65.00	42.00	-57.00	7.00	6.00	0.00
	-8.00	61.00	63.00	-13.00	-25.00	2.00	3.00
	2.00	28.00	124.00	28.00	-51.00	4.00	4.00
	-6.00	11.00	88.00	41.00	-107.00	2.00	3.00
	-19.00	9.00	69.00	82.00	-77.00	3.00	3.00
	-16.00	19.00	17.00	55.00	-21.00	3.00	6.00
	-20.00	34.00	-38.00	36.00	-42.00	0.00	9.00
	-16.00	24.00	-95.00	60.00	-62.00	-7.00	8.00
	-16.00	19.00	-147.00	63.00	-42.00	-13.00	5.00
	-15.00	29.00	-175.00	113.00	-11.00	-11.00	1.00
	-10.00	53.00	-176.00	198.00	3.00	-7.00	-2.00
	-5.00	97.00	-150.00	215.00	60.00	-3.00	-4.00
	8.00	107.00	-94.00	139.00	107.00	-1.00	-8.00
	13.00	110.00	-80.00	49.00	195.00	6.00	-6.00
	17.00	83.00	-87.00	-66.00	210.00	13.00	-9.00
	13.00	50.00	-50.00	-93.00	160.00	17.00	-14.00
	4.00	20.00	-5.00	-91.00	145.00	20.00	-18.00
	8.00	-28.00	-16.00	-77.00	144.00	24.00	-15.00
	1.00	-79.00	-23.00	-74.00	89.00	23.00	-11.00
	-4.00	-125.00	7.00	-30.00	55.00	13.00	-9.00
	-5.00	-122.00	25.00	-16.00	-3.00	4.00	-6.00
	-6.00	-110.00	45.00	-69.00	-104.00	-4.00	-5.00
	-9.00	-74.00	76.00	-111.00	-169.00	-9.00	-3.00
	-21.00	19.00	53.00	-107.00	-243.00	-10.00	0.00
	-28.00	91.00	36.00	-105.00	-242.00	-10.00	-2.00
	-19.00	121.00	38.00	-82.00	-181.00	-11.00	-2.00
	-16.00	91.00	63.00	-33.00	-180.00	-1.00	-2.00
	-11.00	86.00	55.00	-8.00	-138.00	8.00	1.00
	-10.00	63.00	71.00	26.00	-47.00	17.00	4.00
	-14.00	29.00	54.00	71.00	7.00	23.00	1.00
	-12.00	31.00	27.00	102.00	-2.00	18.00	-3.00
	-7.00	23.00	33.00	96.00	49.00	7.00	-5.00
	-7.00	-41.00	16.00	87.00	95.00	-3.00	-6.00
	-4.00	-65.00	25.00	102.00	166.00	-5.00	-4.00
	2.00	-55.00	10.00	81.00	184.00	-4.00	-2.00
	-2.00	-74.00	3.00	-2.00	182.00	3.00	-1.00
	0.00	-47.00	20.00	-77.00	219.00	6.00	-1.00
	-5.00	-1.00	39.00	-99.00	200.00	11.00	0.00
	-10.00	33.00	58.00	-88.00	108.00	10.00	1.00
	-4.00	40.00	59.00	-84.00	7.00	9.00	4.00
	-4.00	25.00	72.00	-91.00	-20.00	8.00	3.00
	-7.00	27.00	75.00	-50.00	-64.00	13.00	4.00
	-12.00	31.00	46.00	9.00	-102.00	12.00	2.00
	-20.00	30.00	16.00	5.00	-192.00	5.00	5.00
	-17.00	58.00	5.00	-21.00	-187.00	0.00	3.00
	-10.00	44.00	-35.00	-24.00	-173.00	-4.00	1.00
	-19.00	34.00	-94.00	5.00	-169.00	-3.00	1.00
	-21.00	30.00	-139.00	42.00	-128.00	2.00	3.00
	-17.00	26.00	-103.00	13.00	-50.00	0.00	6.00
	-9.00	30.00	-97.00	-33.00	9.00	0.00	2.00
	-1.00	30.00	-68.00	-6.00	10.00	-4.00	-1.00
	0.00	-9.00	-17.00	27.00	44.00	-4.00	-4.00
	10.00	-6.00	44.00	80.00	89.00	1.00	-2.00
	11.00	21.00	100.00	42.00	195.00	10.00	-3.00
	10.00	37.00	123.00	40.00	239.00	6.00	-5.00
	8.00	26.00	100.00	13.00	222.00	5.00	-6.00
	10.00	-10.00	96.00	-63.00	264.00	4.00	-8.00
	0.00	-33.00	83.00	-123.00	282.00	5.00	-9.00
	-5.00	-9.00	46.00	-162.00	210.00	3.00	-9.00
	-2.00	14.00	-15.00	-172.00	145.00	2.00	-10.00
	-9.00	11.00	-61.00	-141.00	97.00	5.00	10.00
	-5.00	-22.00	-69.00	-99.00	9.00	15.00	35.00
	-11.00	-39.00	-89.00	-17.00	-58.00	17.00	26.00
	-12.00	-67.00	-129.00	81.00	-199.00	7.00	10.00
	-15.00	-149.00	-155.00	113.00	-262.00	0.00	-1.00
	-12.00	-195.00	-146.00	107.00	-294.00	0.00	-13.00
	-8.00	-140.00	-188.00	159.00	-307.00	4.00	-22.00
	-13.00	-18.00	-103.00	238.00	-240.00	4.00	-24.00
	-10.00	92.00	16.00	282.00	-131.00	9.00	-26.00
	-7.00	125.00	73.00	249.00	-51.00	16.00	-14.00
	5.00	132.00	69.00	222.00	10.00	14.00	-10.00
	4.00	95.00	19.00	224.00	73.00	10.00	-8.00
	5.00	62.00	-38.00	158.00	16.00	16.00	-9.00
	4.00	33.00	-23.00	78.00	16.00	23.00	-6.00
	12.00	20.00	12.00	4.00	66.00	18.00	-8.00
	10.00	37.00	46.00	-52.00	14.00	17.00	-8.00
	12.00	51.00	76.00	-59.00	71.00	11.00	-8.00
	13.00	22.00	119.00	-38.00	138.00	11.00	-8.00
	-1.00	15.00	115.00	12.00	121.00	11.00	-8.00
	-1.00	-8.00	108.00	65.00	147.00	18.00	-5.00
	0.00	-36.00	64.00	59.00	183.00	24.00	-3.00
	-3.00	-25.00	-64.00	-6.00	149.00	30.00	1.00
	-6.00	23.00	-131.00	-103.00	127.00	20.00	6.00
	-12.00	26.00	-95.00	-150.00	53.00	10.00	5.00
	-9.00	41.00	-8.00	-152.00	23.00	-1.00	3.00
	-2.00	106.00	41.00	-87.00	-21.00	-14.00	0.00
	-7.00	100.00	40.00	-36.00	-92.00	-18.00	-4.00
	-3.00	62.00	27.00	37.00	-120.00	-16.00	-4.00
	6.00	26.00	44.00	47.00	-82.00	-16.00	-8.00
	5.00	-26.00	64.00	46.00	-63.00	-10.00	-8.00
	5.00	-3.00	104.00	1.00	-49.00	-5.00	-5.00
	11.00	35.00	58.00	-80.00	12.00	1.00	0.00
	6.00	69.00	16.00	-209.00	45.00	4.00	1.00
	9.00	73.00	-22.00	-242.00	114.00	7.00	4.00
	2.00	35.00	-49.00	-177.00	134.00	7.00	2.00
	9.00	-14.00	-80.00	-71.00	124.00	11.00	6.00
	8.00	-45.00	-97.00	8.00	156.00	27.00	6.00
	-2.00	-36.00	-89.00	52.00	113.00	31.00	7.00
	-8.00	-39.00	-69.00	88.00	40.00	29.00	8.00
	-5.00	-6.00	-39.00	131.00	15.00	26.00	5.00
	-2.00	5.00	3.00	110.00	-43.00	18.00	0.00
	3.00	-4.00	57.00	39.00	-142.00	8.00	-2.00
	-10.00	6.00	71.00	-29.00	-194.00	7.00	-1.00
	-18.00	49.00	64.00	-62.00	-265.00	3.00	-1.00
	-20.00	78.00	38.00	-92.00	-243.00	0.00	-4.00
	-8.00	52.00	-7.00	-147.00	-174.00	-1.00	-6.00
	-12.00	14.00	2.00	-181.00	-161.00	-6.00	-4.00
	-10.00	-2.00	47.00	-176.00	-98.00	-9.00	5.00
	-1.00	-22.00	41.00	-126.00	-21.00	-5.00	2.00
	2.00	-38.00	28.00	-109.00	25.00	-7.00	0.00
	-5.00	-82.00	20.00	-83.00	44.00	-17.00	3.00
	1.00	-84.00	21.00	-25.00	88.00	-20.00	7.00
	5.00	-60.00	4.00	27.00	120.00	-14.00	10.00
	0.00	-62.00	-25.00	67.00	195.00	-19.00	14.00
	8.00	-14.00	-60.00	116.00	241.00	-19.00	9.00
	9.00	-22.00	-66.00	79.00	218.00	-6.00	8.00
	11.00	-18.00	-20.00	86.00	260.00	5.00	6.00
	13.00	-21.00	17.00	96.00	244.00	15.00	5.00
	10.00	12.00	-1.00	87.00	170.00	25.00	6.00
	8.00	41.00	-26.00	138.00	104.00	24.00	4.00
	-2.00	29.00	-6.00	149.00	46.00	15.00	1.00
	-1.00	4.00	-15.00	150.00	-74.00	17.00	-1.00
	-3.00	16.00	-14.00	113.00	-186.00	18.00	-5.00
	-8.00	30.00	-38.00	92.00	-270.00	14.00	-7.00
	-10.00	35.00	-25.00	25.00	-307.00	10.00	-11.00
	-2.00	38.00	6.00	1.00	-264.00	9.00	-10.00
	-2.00	19.00	62.00	-18.00	-229.00	10.00	-7.00
	-1.00	17.00	85.00	-43.00	-174.00	4.00	-8.00
	3.00	65.00	143.00	-30.00	-83.00	-1.00	-11.00
	-1.00	103.00	130.00	-41.00	-32.00	0.00	-15.00
	-4.00	97.00	85.00	-62.00	21.00	10.00	-10.00
	4.00	71.00	-22.00	-30.00	56.00	22.00	-6.00
	1.00	50.00	-119.00	-12.00	52.00	24.00	-5.00
	8.00	10.00	-132.00	-16.00	165.00	18.00	-5.00
	9.00	-38.00	-115.00	9.00	269.00	16.00	-4.00
	5.00	-31.00	-100.00	78.00	280.00	11.00	2.00
	4.00	-7.00	-75.00	198.00	313.00	8.00	1.00
	3.00	1.00	-87.00	242.00	274.00	3.00	0.00
	-2.00	-34.00	-86.00	226.00	175.00	6.00	0.00
	0.00	-38.00	-24.00	174.00	124.00	12.00	-3.00
	-6.00	-32.00	93.00	74.00	81.00	17.00	-1.00
	-11.00	-7.00	146.00	-60.00	9.00	9.00	-4.00
	-16.00	-9.00	140.00	-188.00	-39.00	2.00	-4.00
	-16.00	6.00	104.00	-211.00	-146.00	-10.00	-6.00
	-18.00	48.00	44.00	-196.00	-187.00	-24.00	-11.00
	-9.00	75.00	-27.00	-117.00	-174.00	-29.00	-14.00
	-15.00	70.00	-113.00	-59.00	-212.00	-31.00	-15.00
	-10.00	45.00	-206.00	-23.00	-178.00	-22.00	-12.00
	-6.00	38.00	-184.00	11.00	-98.00	-12.00	-6.00
	-9.00	30.00	-92.00	13.00	-54.00	-9.00	-4.00
	-7.00	13.00	-21.00	6.00	-11.00	-6.00	0.00
	-4.00	-12.00	22.00	8.00	71.00	-3.00	1.00
	0.00	14.00	77.00	14.00	122.00	4.00	-1.00
	2.00	5.00	124.00	-16.00	208.00	8.00	-1.00
	2.00	7.00	164.00	-33.00	224.00	15.00	-2.00
	5.00	2.00	178.00	-28.00	180.00	13.00	0.00
	7.00	-18.00	157.00	-16.00	167.00	9.00	-7.00
	9.00	-11.00	141.00	-4.00	121.00	5.00	-7.00
	2.00	-30.00	114.00	37.00	19.00	6.00	-2.00
	-1.00	-50.00	109.00	40.00	-45.00	1.00	0.00
	-7.00	-56.00	102.00	-13.00	-56.00	-6.00	3.00
	-8.00	-74.00	68.00	-37.00	-106.00	-3.00	3.00
	-8.00	-34.00	33.00	-53.00	-135.00	2.00	0.00
	-10.00	27.00	64.00	-76.00	-199.00	-3.00	-1.00
	-11.00	44.00	68.00	-71.00	-189.00	-8.00	-1.00
