
	-56.00	60.00	-5.00	34.00	11.00	-1.00	1.00
	-45.00	24.00	-112.00	-66.00	7.00	-7.00	14.00
	-32.00	34.00	-111.00	-125.00	-3.00	-9.00	9.00
	-22.00	26.00	-65.00	-159.00	-3.00	7.00	5.00
	-12.00	6.00	-62.00	-73.00	-8.00	2.00	3.00
	1.00	18.00	-60.00	-2.00	-19.00	-12.00	3.00
	5.00	26.00	-123.00	-42.00	-25.00	-28.00	1.00
	9.00	41.00	-205.00	-52.00	-23.00	-35.00	-5.00
	8.00	26.00	-304.00	-49.00	-18.00	-33.00	-3.00
	17.00	3.00	-225.00	-95.00	-18.00	-25.00	-5.00
	15.00	-9.00	-22.00	-90.00	-18.00	74.00	-7.00
	12.00	-10.00	192.00	-70.00	-22.00	195.00	-19.00
	12.00	3.00	126.00	-53.00	-9.00	28.00	-13.00
	7.00	6.00	-12.00	-41.00	4.00	9.00	-13.00
	9.00	14.00	-10.00	16.00	13.00	22.00	-13.00
	10.00	11.00	-29.00	91.00	21.00	21.00	-15.00
	8.00	-2.00	-41.00	170.00	20.00	25.00	-19.00
	5.00	-28.00	-63.00	162.00	29.00	17.00	-33.00
	14.00	-14.00	-100.00	0.00	43.00	0.00	-30.00
	19.00	6.00	-96.00	-132.00	53.00	-28.00	-11.00
	19.00	8.00	-91.00	-171.00	56.00	-19.00	7.00
	20.00	6.00	-74.00	-124.00	60.00	-15.00	27.00
	22.00	12.00	-3.00	-48.00	51.00	-1.00	40.00
	20.00	7.00	63.00	43.00	47.00	23.00	25.00
	13.00	12.00	20.00	48.00	47.00	12.00	-9.00
	5.00	19.00	-23.00	27.00	43.00	-76.00	-4.00
	4.00	16.00	53.00	99.00	42.00	-6.00	10.00
	2.00	14.00	100.00	89.00	47.00	43.00	29.00
	-3.00	15.00	132.00	94.00	39.00	64.00	27.00
	2.00	20.00	122.00	26.00	32.00	74.00	34.00
	3.00	18.00	61.00	-12.00	26.00	47.00	28.00
	-3.00	28.00	-17.00	-48.00	23.00	-28.00	19.00
	-3.00	7.00	-63.00	-14.00	23.00	-56.00	10.00
	5.00	-9.00	-29.00	57.00	21.00	-119.00	1.00
	2.00	-21.00	-54.00	-3.00	22.00	55.00	-21.00
	1.00	11.00	-199.00	13.00	13.00	59.00	-29.00
	4.00	34.00	-241.00	47.00	17.00	26.00	-43.00
	14.00	22.00	-144.00	24.00	25.00	16.00	-28.00
	15.00	-4.00	-39.00	-35.00	32.00	64.00	-13.00
	23.00	7.00	24.00	12.00	33.00	80.00	-6.00
	17.00	14.00	110.00	67.00	28.00	69.00	7.00
	14.00	21.00	206.00	69.00	35.00	40.00	34.00
	11.00	37.00	175.00	72.00	35.00	-74.00	20.00
	4.00	30.00	189.00	-12.00	36.00	-150.00	16.00
	-5.00	17.00	72.00	-122.00	22.00	-130.00	9.00
	-8.00	6.00	-7.00	-114.00	17.00	-11.00	18.00
	-10.00	-4.00	-134.00	-53.00	12.00	73.00	12.00
	2.00	1.00	-113.00	73.00	11.00	71.00	21.00
	11.00	2.00	-95.00	177.00	11.00	-4.00	6.00
	5.00	-7.00	-156.00	224.00	0.00	3.00	-7.00
	2.00	4.00	-74.00	184.00	-11.00	27.00	-18.00
	-6.00	-5.00	136.00	-28.00	-20.00	-24.00	-22.00
	-6.00	14.00	315.00	-78.00	-11.00	-5.00	-40.00
	-6.00	21.00	138.00	-240.00	-5.00	-9.00	-26.00
	-13.00	13.00	18.00	-350.00	-52.00	-8.00	-10.00
	-14.00	-8.00	18.00	-229.00	-58.00	-51.00	3.00
	-10.00	-10.00	20.00	-140.00	-20.00	-36.00	8.00
	-2.00	18.00	9.00	-104.00	-15.00	25.00	12.00
	2.00	41.00	-23.00	-53.00	7.00	44.00	11.00
	4.00	60.00	-85.00	12.00	34.00	37.00	-3.00
	1.00	60.00	-201.00	29.00	46.00	10.00	4.00
	1.00	37.00	-277.00	80.00	43.00	-40.00	13.00
	8.00	5.00	-229.00	56.00	27.00	-78.00	11.00
	4.00	4.00	-50.00	58.00	16.00	-13.00	6.00
	-1.00	8.00	184.00	84.00	8.00	19.00	5.00
	-7.00	9.00	270.00	36.00	-3.00	25.00	-2.00
	-13.00	17.00	217.00	-19.00	-7.00	36.00	-1.00
	-6.00	13.00	101.00	-59.00	-9.00	5.00	-1.00
	-4.00	14.00	21.00	-57.00	-8.00	-87.00	-7.00
	-1.00	22.00	1.00	42.00	-9.00	-65.00	-5.00
	-3.00	14.00	-19.00	65.00	-15.00	-11.00	-3.00
	-8.00	3.00	51.00	78.00	-14.00	-122.00	2.00
	-11.00	-4.00	97.00	102.00	-22.00	205.00	11.00
	-4.00	-9.00	34.00	-31.00	-9.00	146.00	22.00
	1.00	1.00	-142.00	-128.00	0.00	-10.00	13.00
	-7.00	7.00	-297.00	-15.00	-7.00	7.00	12.00
	-5.00	24.00	-272.00	130.00	-11.00	-55.00	-4.00
	-5.00	32.00	-73.00	228.00	-2.00	42.00	-22.00
	-6.00	51.00	174.00	237.00	9.00	68.00	-21.00
	-15.00	58.00	272.00	98.00	12.00	59.00	-22.00
	-22.00	56.00	284.00	130.00	16.00	70.00	-22.00
	-20.00	23.00	261.00	124.00	29.00	71.00	-10.00
	-17.00	-4.00	99.00	63.00	22.00	50.00	-2.00
	-13.00	6.00	-8.00	-8.00	18.00	55.00	11.00
	-6.00	17.00	4.00	-18.00	19.00	-107.00	17.00
	-12.00	32.00	-70.00	35.00	17.00	-100.00	36.00
	-3.00	31.00	-191.00	8.00	15.00	-9.00	46.00
	3.00	18.00	-125.00	-20.00	14.00	4.00	31.00
	1.00	16.00	-18.00	-36.00	7.00	-40.00	12.00
	0.00	27.00	84.00	-65.00	6.00	-23.00	11.00
	2.00	15.00	105.00	-24.00	8.00	9.00	13.00
	0.00	6.00	104.00	27.00	4.00	30.00	-11.00
	-2.00	8.00	76.00	3.00	2.00	-27.00	-10.00
	-7.00	9.00	62.00	51.00	7.00	-40.00	0.00
	-12.00	13.00	4.00	-16.00	8.00	-28.00	3.00
	-9.00	9.00	-19.00	-53.00	9.00	21.00	3.00
	-5.00	7.00	-35.00	-38.00	17.00	126.00	8.00
	3.00	9.00	-81.00	-98.00	22.00	129.00	2.00
	10.00	16.00	-136.00	-153.00	16.00	-31.00	-4.00
	19.00	27.00	-248.00	-140.00	13.00	-107.00	-3.00
	25.00	12.00	-262.00	-88.00	10.00	1.00	4.00
	28.00	-10.00	-175.00	-34.00	12.00	14.00	-3.00
	29.00	-13.00	-43.00	24.00	12.00	-26.00	-16.00
	33.00	12.00	109.00	106.00	19.00	2.00	-3.00
	32.00	41.00	65.00	218.00	21.00	11.00	3.00
	26.00	47.00	-46.00	258.00	17.00	0.00	-3.00
	12.00	12.00	-92.00	86.00	12.00	11.00	-5.00
	8.00	-32.00	-95.00	-27.00	10.00	51.00	-6.00
	6.00	-42.00	-53.00	-146.00	8.00	48.00	-5.00
	3.00	-30.00	100.00	-156.00	4.00	58.00	-4.00
	-6.00	-4.00	203.00	-60.00	3.00	-19.00	0.00
	-16.00	6.00	186.00	-20.00	-7.00	-128.00	-14.00
	-16.00	20.00	-6.00	-28.00	-6.00	-74.00	-10.00
	-12.00	27.00	-66.00	-7.00	-4.00	-29.00	-8.00
	-9.00	21.00	-39.00	4.00	-4.00	129.00	-13.00
	-3.00	4.00	-52.00	-81.00	-3.00	237.00	-32.00
	3.00	11.00	6.00	-65.00	7.00	48.00	-25.00
	7.00	19.00	-12.00	-86.00	16.00	43.00	-8.00
	2.00	30.00	-83.00	-120.00	9.00	14.00	-3.00
	-2.00	24.00	-103.00	-29.00	8.00	-5.00	-11.00
	0.00	24.00	-136.00	-15.00	9.00	8.00	2.00
	4.00	29.00	-63.00	13.00	21.00	29.00	14.00
	3.00	52.00	-35.00	156.00	21.00	6.00	-3.00
	-1.00	56.00	45.00	208.00	22.00	-7.00	-4.00
	0.00	2.00	158.00	170.00	17.00	-4.00	12.00
	3.00	-27.00	357.00	29.00	16.00	27.00	13.00
	1.00	20.00	239.00	-31.00	14.00	29.00	1.00
	-1.00	27.00	144.00	29.00	13.00	144.00	-6.00
	5.00	12.00	113.00	42.00	20.00	122.00	-21.00
	12.00	-18.00	31.00	94.00	11.00	80.00	-20.00
	11.00	-16.00	-20.00	113.00	0.00	-93.00	-19.00
	8.00	-7.00	52.00	240.00	-8.00	-64.00	-18.00
	18.00	5.00	-13.00	147.00	-8.00	6.00	-14.00
	18.00	23.00	-125.00	18.00	-8.00	21.00	-15.00
	16.00	48.00	-82.00	-30.00	-5.00	30.00	-15.00
	6.00	36.00	67.00	-53.00	2.00	23.00	-9.00
	-5.00	-18.00	143.00	-106.00	12.00	-2.00	-6.00
	-8.00	-2.00	59.00	-126.00	14.00	0.00	-3.00
	1.00	23.00	-61.00	-146.00	15.00	-39.00	-8.00
	4.00	31.00	-201.00	-189.00	18.00	-60.00	-4.00
	2.00	25.00	-271.00	-270.00	22.00	-23.00	1.00
	7.00	18.00	-211.00	-249.00	27.00	-14.00	1.00
	-2.00	32.00	13.00	-127.00	27.00	-12.00	-3.00
	-12.00	42.00	218.00	120.00	27.00	-14.00	14.00
	-20.00	47.00	151.00	230.00	24.00	-2.00	13.00
	-22.00	38.00	150.00	374.00	19.00	-5.00	20.00
	0.00	27.00	113.00	309.00	15.00	-7.00	13.00
	-2.00	32.00	-37.00	129.00	5.00	-6.00	17.00
	-16.00	7.00	-106.00	62.00	1.00	-12.00	27.00
	-32.00	-2.00	-54.00	-8.00	-22.00	-2.00	30.00
	-52.00	-18.00	6.00	-18.00	-43.00	-10.00	24.00
	-56.00	-14.00	17.00	22.00	-22.00	-5.00	13.00
	-48.00	10.00	-31.00	-34.00	11.00	2.00	5.00
	-38.00	6.00	10.00	51.00	38.00	-1.00	12.00
	-16.00	4.00	10.00	-34.00	40.00	26.00	12.00
	-6.00	-18.00	63.00	-150.00	29.00	92.00	11.00
	1.00	-2.00	143.00	-75.00	25.00	76.00	15.00
	4.00	18.00	231.00	-10.00	16.00	36.00	28.00
	6.00	33.00	135.00	66.00	11.00	-58.00	28.00
	4.00	40.00	19.00	98.00	18.00	-225.00	5.00
	0.00	37.00	-44.00	62.00	17.00	-71.00	-7.00
	4.00	25.00	-58.00	52.00	22.00	-18.00	-10.00
	10.00	14.00	-182.00	50.00	22.00	-13.00	-6.00
	22.00	-10.00	-310.00	69.00	23.00	-32.00	3.00
	28.00	2.00	-331.00	-52.00	22.00	30.00	-4.00
	30.00	19.00	-207.00	-122.00	19.00	30.00	4.00
	28.00	31.00	17.00	-130.00	11.00	33.00	7.00
	21.00	2.00	252.00	-53.00	11.00	76.00	-9.00
	18.00	-14.00	318.00	34.00	6.00	31.00	-12.00
	21.00	-16.00	122.00	156.00	0.00	12.00	-12.00
	37.00	-7.00	-31.00	163.00	9.00	78.00	-7.00
	41.00	3.00	-40.00	-7.00	13.00	66.00	-24.00
	26.00	9.00	79.00	-110.00	12.00	24.00	-30.00
	17.00	18.00	105.00	-169.00	17.00	-7.00	-8.00
	15.00	37.00	55.00	-115.00	9.00	4.00	-13.00
	14.00	22.00	-88.00	-102.00	2.00	-23.00	-18.00
	7.00	-14.00	-184.00	-72.00	6.00	-28.00	-4.00
	2.00	5.00	-269.00	-38.00	14.00	-146.00	-19.00
	-7.00	2.00	-187.00	24.00	11.00	-121.00	-26.00
	-7.00	15.00	-19.00	78.00	21.00	-154.00	-24.00
	-6.00	26.00	77.00	133.00	25.00	25.00	-21.00
	-9.00	30.00	117.00	175.00	29.00	94.00	0.00
	-15.00	35.00	224.00	158.00	22.00	254.00	15.00
	-29.00	40.00	231.00	101.00	22.00	88.00	25.00
	-39.00	53.00	81.00	12.00	19.00	109.00	36.00
	-44.00	65.00	-65.00	-47.00	14.00	86.00	47.00
	-34.00	32.00	-105.00	0.00	8.00	75.00	51.00
	-34.00	-16.00	-50.00	13.00	6.00	-43.00	20.00
	-33.00	-39.00	36.00	-2.00	1.00	-62.00	-7.00
	-26.00	-28.00	24.00	-36.00	9.00	41.00	0.00
	-18.00	-9.00	-31.00	-118.00	1.00	63.00	-16.00
	-16.00	6.00	5.00	-104.00	0.00	59.00	-12.00
	-21.00	9.00	38.00	-52.00	-3.00	58.00	-14.00
	-31.00	5.00	22.00	11.00	-4.00	106.00	-13.00
	-29.00	-4.00	32.00	3.00	-2.00	78.00	-12.00
	-30.00	-4.00	-25.00	-26.00	0.00	-91.00	-11.00
	-28.00	1.00	-128.00	27.00	6.00	11.00	-1.00
	-24.00	4.00	-210.00	-69.00	13.00	82.00	-1.00
	-16.00	-7.00	-218.00	-47.00	17.00	75.00	-1.00
	-18.00	0.00	-182.00	-63.00	14.00	40.00	13.00
	-12.00	10.00	-50.00	29.00	19.00	66.00	-4.00
	-2.00	16.00	59.00	17.00	21.00	-18.00	-11.00
	-6.00	21.00	140.00	58.00	13.00	-154.00	-20.00
	-10.00	-12.00	68.00	-38.00	19.00	29.00	-10.00
	6.00	-13.00	86.00	-7.00	26.00	57.00	7.00
	19.00	-9.00	114.00	-11.00	26.00	-81.00	13.00
	31.00	7.00	101.00	89.00	19.00	-270.00	11.00
	44.00	18.00	-40.00	73.00	19.00	-95.00	22.00
	46.00	17.00	-91.00	25.00	19.00	-57.00	37.00
	44.00	24.00	11.00	53.00	10.00	-25.00	40.00
	50.00	27.00	47.00	-28.00	1.00	89.00	25.00
	55.00	-5.00	37.00	-5.00	2.00	71.00	13.00
	69.00	-23.00	-24.00	28.00	5.00	74.00	-1.00
	65.00	-6.00	-117.00	4.00	0.00	81.00	-5.00
	61.00	16.00	-239.00	8.00	3.00	39.00	-5.00
	54.00	22.00	-159.00	39.00	9.00	-3.00	-10.00
	49.00	10.00	28.00	65.00	7.00	5.00	-18.00
	51.00	6.00	265.00	181.00	17.00	-5.00	-15.00
	49.00	44.00	288.00	188.00	18.00	6.00	-1.00
	41.00	18.00	39.00	106.00	18.00	-2.00	-3.00
	37.00	16.00	-186.00	107.00	21.00	-67.00	17.00
	40.00	3.00	-162.00	38.00	28.00	-77.00	28.00
	35.00	3.00	7.00	-80.00	19.00	-72.00	24.00
	32.00	32.00	280.00	-41.00	19.00	-48.00	12.00
	25.00	57.00	338.00	-62.00	20.00	107.00	-5.00
	20.00	70.00	195.00	-102.00	24.00	178.00	-20.00
	21.00	86.00	80.00	-47.00	23.00	-9.00	-16.00
	13.00	78.00	-19.00	-75.00	14.00	-12.00	-9.00
	-1.00	25.00	-104.00	-58.00	13.00	29.00	-6.00
	-1.00	0.00	-171.00	-27.00	9.00	150.00	6.00
	-5.00	10.00	-171.00	-67.00	3.00	47.00	11.00
	-12.00	24.00	-151.00	-63.00	4.00	21.00	12.00
	-20.00	41.00	-27.00	-38.00	-1.00	18.00	5.00
	-19.00	18.00	36.00	-44.00	3.00	10.00	-5.00
	-16.00	2.00	13.00	-38.00	8.00	9.00	-9.00
	-26.00	2.00	-8.00	21.00	7.00	5.00	-6.00
	-29.00	-8.00	-77.00	66.00	11.00	-2.00	-22.00
	-29.00	11.00	17.00	208.00	10.00	-13.00	-18.00
	-22.00	9.00	160.00	243.00	20.00	-19.00	-14.00
	-17.00	27.00	137.00	80.00	23.00	-15.00	-14.00
	-24.00	45.00	-30.00	-111.00	21.00	14.00	-14.00
	-17.00	44.00	-66.00	-145.00	29.00	12.00	-1.00
	-23.00	39.00	-55.00	-109.00	35.00	10.00	7.00
	-21.00	24.00	-48.00	-28.00	39.00	5.00	15.00
	-24.00	21.00	161.00	183.00	28.00	-5.00	-1.00
	-26.00	21.00	307.00	222.00	25.00	20.00	-4.00
	-26.00	39.00	344.00	110.00	24.00	51.00	1.00
	-22.00	38.00	246.00	-24.00	24.00	34.00	1.00
	-22.00	26.00	101.00	-71.00	27.00	-20.00	4.00
	-24.00	40.00	-34.00	-74.00	20.00	-78.00	10.00
	-13.00	47.00	-75.00	-23.00	11.00	-93.00	-10.00
	-8.00	22.00	-135.00	-75.00	4.00	13.00	-15.00
	0.00	-24.00	-208.00	-158.00	-31.00	58.00	-24.00
	5.00	-16.00	-257.00	-150.00	-30.00	45.00	-18.00
	1.00	8.00	-175.00	-98.00	4.00	32.00	-19.00
	3.00	-7.00	-26.00	97.00	42.00	40.00	-7.00
	5.00	-15.00	-55.00	178.00	62.00	45.00	-1.00
	5.00	-17.00	-141.00	126.00	66.00	48.00	-4.00
	5.00	-3.00	-190.00	135.00	52.00	52.00	-2.00
	3.00	7.00	-165.00	25.00	44.00	53.00	4.00
	-6.00	27.00	-161.00	-56.00	37.00	24.00	10.00
	-7.00	7.00	-190.00	-26.00	47.00	2.00	20.00
	-10.00	-38.00	-24.00	-25.00	41.00	-6.00	-6.00
	-14.00	-44.00	252.00	15.00	38.00	-10.00	-9.00
	-30.00	-21.00	421.00	110.00	25.00	-8.00	-10.00
	-42.00	-4.00	445.00	156.00	25.00	-14.00	-2.00
	-48.00	22.00	310.00	107.00	24.00	30.00	1.00
	-47.00	37.00	161.00	140.00	19.00	104.00	5.00
	-35.00	40.00	11.00	215.00	15.00	112.00	10.00
	-23.00	14.00	-49.00	186.00	15.00	60.00	7.00
	-9.00	7.00	-70.00	25.00	8.00	-117.00	-2.00
	-1.00	12.00	-76.00	-82.00	6.00	-332.00	-9.00
	1.00	24.00	-57.00	-166.00	9.00	-114.00	-5.00
	1.00	27.00	-97.00	-242.00	5.00	11.00	-16.00
	5.00	8.00	-199.00	-206.00	-4.00	29.00	-21.00
	10.00	-18.00	-208.00	-184.00	-4.00	125.00	-12.00
	17.00	12.00	-157.00	-196.00	5.00	-35.00	-4.00
	15.00	47.00	-208.00	-143.00	3.00	-138.00	2.00
	9.00	82.00	-197.00	-67.00	4.00	-10.00	19.00
	9.00	113.00	-195.00	-124.00	3.00	90.00	23.00
	10.00	49.00	-256.00	-280.00	6.00	270.00	19.00
	22.00	-58.00	-366.00	-149.00	15.00	62.00	27.00
	27.00	-107.00	-244.00	-22.00	16.00	52.00	24.00
	27.00	-64.00	6.00	130.00	23.00	26.00	11.00
	22.00	-13.00	192.00	212.00	32.00	-12.00	0.00
	17.00	9.00	592.00	388.00	38.00	-55.00	-3.00
	-5.00	28.00	720.00	383.00	13.00	-40.00	1.00
	-13.00	37.00	722.00	338.00	0.00	-4.00	9.00
	-19.00	33.00	431.00	77.00	-6.00	12.00	6.00
	-21.00	25.00	300.00	-149.00	-8.00	9.00	-1.00
	-13.00	17.00	165.00	-188.00	-5.00	-1.00	-1.00
	-16.00	23.00	8.00	-102.00	-9.00	3.00	-7.00
	-15.00	26.00	-88.00	14.00	-8.00	-4.00	-10.00
	-9.00	7.00	-102.00	118.00	-11.00	-10.00	-18.00
	-11.00	6.00	-120.00	153.00	-9.00	-14.00	-21.00
	-10.00	4.00	-134.00	105.00	-13.00	5.00	-20.00
	4.00	0.00	-192.00	34.00	-8.00	23.00	-19.00
	16.00	12.00	-287.00	36.00	-5.00	30.00	-12.00
	15.00	13.00	-315.00	33.00	3.00	41.00	-6.00
	19.00	23.00	-372.00	-55.00	4.00	43.00	-20.00
	22.00	19.00	-358.00	-117.00	9.00	7.00	-26.00
	25.00	44.00	-173.00	-97.00	21.00	23.00	-1.00
	16.00	62.00	145.00	-52.00	19.00	18.00	9.00
	3.00	26.00	401.00	32.00	20.00	0.00	17.00
	-9.00	-14.00	427.00	117.00	13.00	5.00	-1.00
	-12.00	1.00	239.00	49.00	12.00	13.00	-8.00
	-11.00	19.00	69.00	3.00	7.00	4.00	0.00
	-10.00	31.00	-45.00	-30.00	2.00	0.00	5.00
	-10.00	16.00	-122.00	-35.00	0.00	18.00	1.00
	-12.00	6.00	-201.00	-25.00	-1.00	31.00	1.00
	-7.00	-4.00	-247.00	-32.00	-1.00	-2.00	-5.00
	3.00	1.00	-162.00	-87.00	2.00	-11.00	2.00
	2.00	-5.00	-94.00	-110.00	-4.00	-19.00	2.00
	6.00	11.00	-32.00	-41.00	-2.00	-32.00	7.00
	13.00	14.00	54.00	14.00	4.00	5.00	10.00
	14.00	15.00	-4.00	11.00	7.00	25.00	15.00
	12.00	16.00	8.00	-14.00	4.00	43.00	9.00
	17.00	20.00	74.00	-48.00	3.00	64.00	9.00
	16.00	17.00	180.00	1.00	6.00	13.00	16.00
	11.00	18.00	148.00	-3.00	12.00	-90.00	19.00
	7.00	34.00	77.00	27.00	17.00	-48.00	7.00
	5.00	36.00	72.00	95.00	16.00	-42.00	20.00
	2.00	17.00	19.00	140.00	14.00	-12.00	9.00
	1.00	21.00	-35.00	145.00	17.00	22.00	9.00
	-5.00	23.00	-60.00	111.00	16.00	61.00	-9.00
	-7.00	13.00	-65.00	-60.00	15.00	60.00	-1.00
	-7.00	-11.00	-88.00	-65.00	12.00	40.00	21.00
	-4.00	-10.00	-116.00	-161.00	6.00	99.00	-8.00
	0.00	2.00	-47.00	-123.00	0.00	9.00	-7.00
	1.00	6.00	-42.00	-65.00	3.00	-128.00	13.00
	2.00	8.00	-40.00	-43.00	-2.00	-25.00	0.00
	2.00	6.00	2.00	-70.00	-8.00	-211.00	-14.00
	1.00	4.00	42.00	16.00	-4.00	17.00	-5.00
	2.00	9.00	86.00	106.00	-3.00	191.00	-14.00
	-1.00	32.00	74.00	128.00	-1.00	78.00	-18.00
	8.00	28.00	40.00	226.00	4.00	-13.00	-2.00
	16.00	29.00	14.00	225.00	9.00	-67.00	3.00
	11.00	31.00	-36.00	112.00	6.00	-187.00	-5.00
	12.00	11.00	6.00	1.00	3.00	-125.00	-27.00
	15.00	-17.00	-37.00	-153.00	3.00	17.00	-23.00
	17.00	-39.00	-59.00	-288.00	1.00	348.00	7.00
	15.00	-9.00	-89.00	-253.00	6.00	167.00	19.00
	23.00	-2.00	-162.00	-108.00	0.00	104.00	11.00
	30.00	-12.00	-101.00	49.00	6.00	-95.00	20.00
	30.00	7.00	50.00	159.00	21.00	-67.00	32.00
	21.00	17.00	57.00	236.00	29.00	-85.00	38.00
	13.00	2.00	82.00	214.00	15.00	-72.00	24.00
	10.00	-20.00	33.00	174.00	4.00	2.00	1.00
	11.00	-35.00	-98.00	85.00	-1.00	21.00	-14.00
	6.00	0.00	-170.00	36.00	0.00	16.00	-13.00
	-12.00	32.00	-103.00	12.00	0.00	12.00	-13.00
	-23.00	40.00	199.00	76.00	-2.00	9.00	-13.00
	-32.00	32.00	402.00	39.00	0.00	10.00	-19.00
	-41.00	22.00	483.00	-3.00	0.00	9.00	-19.00
	-52.00	23.00	308.00	-99.00	3.00	7.00	-11.00
	-55.00	31.00	138.00	-122.00	5.00	14.00	-8.00
	-50.00	34.00	-9.00	-113.00	-21.00	18.00	-1.00
	-50.00	38.00	-62.00	55.00	-34.00	27.00	5.00
	-36.00	53.00	-64.00	181.00	-2.00	35.00	12.00
	-24.00	53.00	16.00	188.00	30.00	33.00	5.00
	-12.00	37.00	-42.00	86.00	52.00	42.00	1.00
	2.00	16.00	-134.00	-55.00	63.00	67.00	12.00
	8.00	17.00	-104.00	-153.00	52.00	-41.00	8.00
	7.00	21.00	-51.00	-213.00	38.00	-41.00	-2.00
	12.00	7.00	99.00	-68.00	35.00	-21.00	6.00
	16.00	7.00	114.00	-21.00	28.00	30.00	0.00
	12.00	5.00	17.00	-45.00	23.00	31.00	1.00
	17.00	19.00	-67.00	-80.00	20.00	23.00	1.00
	15.00	0.00	-94.00	-67.00	16.00	27.00	0.00
	10.00	-7.00	-62.00	-24.00	12.00	28.00	6.00
	8.00	-3.00	-102.00	-48.00	8.00	16.00	-1.00
	4.00	7.00	-215.00	-104.00	13.00	39.00	0.00
	2.00	29.00	-263.00	-59.00	15.00	22.00	1.00
	11.00	42.00	-151.00	5.00	18.00	10.00	5.00
	18.00	19.00	79.00	112.00	19.00	23.00	-2.00
	15.00	-11.00	205.00	133.00	26.00	-113.00	-11.00
	9.00	-6.00	226.00	124.00	33.00	-82.00	-8.00
	7.00	21.00	138.00	92.00	27.00	-72.00	4.00
	10.00	52.00	19.00	3.00	25.00	-71.00	-8.00
	13.00	63.00	-1.00	-34.00	29.00	114.00	-29.00
	12.00	6.00	-39.00	-48.00	38.00	369.00	-2.00
	10.00	-28.00	-95.00	-63.00	53.00	102.00	12.00
	13.00	-1.00	-63.00	64.00	48.00	21.00	8.00
	8.00	14.00	-5.00	116.00	53.00	7.00	8.00
	1.00	38.00	56.00	136.00	70.00	-4.00	8.00
	0.00	24.00	20.00	78.00	81.00	-16.00	9.00
	10.00	31.00	-57.00	-36.00	87.00	-22.00	12.00
	13.00	34.00	-125.00	-93.00	83.00	18.00	14.00
	13.00	19.00	-187.00	-95.00	69.00	86.00	10.00
	13.00	0.00	-204.00	-121.00	65.00	78.00	16.00
	17.00	-33.00	-200.00	-65.00	56.00	40.00	20.00
	19.00	-29.00	-108.00	33.00	50.00	-181.00	22.00
	8.00	3.00	15.00	109.00	34.00	-142.00	-3.00
	0.00	12.00	20.00	110.00	23.00	-28.00	-9.00
	-4.00	9.00	136.00	50.00	13.00	2.00	-10.00
	-15.00	11.00	310.00	40.00	9.00	-24.00	-9.00
	-16.00	5.00	359.00	-23.00	5.00	-16.00	7.00
	-20.00	2.00	246.00	-45.00	-1.00	57.00	6.00
	-24.00	-1.00	53.00	-22.00	0.00	51.00	10.00
	-13.00	10.00	19.00	45.00	-3.00	86.00	-25.00
	-11.00	24.00	86.00	125.00	-9.00	76.00	-25.00
	-23.00	27.00	26.00	98.00	-15.00	3.00	-7.00
	-26.00	39.00	-35.00	122.00	-23.00	-226.00	-8.00
	-21.00	42.00	-80.00	17.00	-21.00	-30.00	-9.00
	-17.00	44.00	-73.00	-118.00	-25.00	22.00	-14.00
	-10.00	19.00	-112.00	-204.00	-34.00	21.00	-14.00
	0.00	15.00	-166.00	-287.00	-44.00	-85.00	-21.00
	13.00	11.00	-172.00	-118.00	-46.00	-38.00	-19.00
	14.00	22.00	-197.00	-94.00	-45.00	15.00	-15.00
	14.00	-3.00	-69.00	-120.00	-50.00	21.00	-2.00
	5.00	-14.00	71.00	79.00	-55.00	23.00	7.00
	0.00	4.00	73.00	28.00	-59.00	23.00	5.00
	-5.00	15.00	163.00	81.00	-56.00	14.00	6.00
	-13.00	29.00	264.00	209.00	-54.00	6.00	-10.00
	-24.00	32.00	466.00	316.00	-47.00	-20.00	-21.00
	-27.00	46.00	349.00	268.00	-47.00	-13.00	-26.00
	-25.00	28.00	118.00	124.00	-52.00	-6.00	-22.00
	-16.00	22.00	-27.00	-18.00	-44.00	-2.00	-12.00
	-14.00	37.00	-102.00	-12.00	-39.00	33.00	5.00
	-5.00	40.00	-146.00	-8.00	-30.00	60.00	15.00
	9.00	14.00	-184.00	2.00	-26.00	51.00	16.00
	13.00	32.00	-248.00	50.00	-18.00	60.00	32.00
	16.00	39.00	-280.00	75.00	-21.00	63.00	32.00
	13.00	37.00	-214.00	53.00	-21.00	25.00	29.00
	16.00	-7.00	-53.00	-44.00	-12.00	-106.00	19.00
	8.00	-29.00	94.00	-43.00	0.00	-7.00	12.00
	3.00	-27.00	311.00	-39.00	5.00	12.00	2.00
	-4.00	-9.00	230.00	-61.00	-9.00	30.00	-9.00
	6.00	4.00	166.00	-40.00	-11.00	-44.00	-16.00
	4.00	10.00	91.00	-7.00	-7.00	-4.00	-8.00
	0.00	15.00	49.00	65.00	-8.00	12.00	-8.00
	-6.00	11.00	-40.00	42.00	-10.00	13.00	-2.00
	-15.00	17.00	-99.00	30.00	-17.00	14.00	4.00
	-12.00	19.00	-142.00	14.00	-15.00	15.00	14.00
	-17.00	11.00	-126.00	-49.00	-11.00	14.00	4.00
	-20.00	-4.00	-76.00	-84.00	-7.00	-14.00	5.00
	-14.00	6.00	-47.00	-19.00	-1.00	-71.00	9.00
	-10.00	3.00	-7.00	-6.00	-1.00	-80.00	3.00
	-4.00	0.00	-7.00	13.00	7.00	-124.00	4.00
	2.00	4.00	51.00	30.00	17.00	-78.00	-20.00
	5.00	13.00	-10.00	-26.00	24.00	279.00	-24.00
	7.00	58.00	-103.00	-57.00	31.00	253.00	0.00
	12.00	70.00	-177.00	-41.00	27.00	62.00	-10.00
	20.00	10.00	-267.00	-132.00	21.00	30.00	-27.00
	34.00	-23.00	-312.00	-197.00	21.00	63.00	-29.00
	31.00	-11.00	-308.00	-203.00	26.00	27.00	-14.00
	28.00	8.00	-97.00	-122.00	29.00	3.00	2.00
	23.00	9.00	238.00	-41.00	25.00	73.00	-18.00
	11.00	3.00	454.00	211.00	20.00	77.00	-12.00
	-11.00	17.00	405.00	263.00	17.00	134.00	7.00
	-17.00	16.00	323.00	196.00	13.00	78.00	22.00
	-16.00	6.00	199.00	151.00	11.00	-201.00	37.00
	-17.00	2.00	64.00	64.00	-33.00	-52.00	37.00
	-16.00	-2.00	-20.00	21.00	-27.00	6.00	14.00
	-16.00	-2.00	-44.00	-39.00	9.00	-46.00	-8.00
	-14.00	11.00	-51.00	-82.00	45.00	-76.00	-13.00
	-1.00	28.00	-32.00	22.00	61.00	-96.00	-18.00
	10.00	39.00	-66.00	82.00	54.00	25.00	-27.00
	11.00	21.00	-174.00	-19.00	49.00	26.00	-9.00
	11.00	-5.00	-166.00	-10.00	38.00	-19.00	-3.00
	16.00	0.00	-85.00	-5.00	33.00	0.00	5.00
	19.00	-5.00	46.00	0.00	40.00	3.00	11.00
	8.00	3.00	82.00	59.00	33.00	9.00	2.00
	1.00	15.00	39.00	47.00	34.00	11.00	3.00
	-6.00	28.00	37.00	42.00	28.00	5.00	1.00
	-13.00	28.00	91.00	30.00	21.00	6.00	-1.00
	-16.00	22.00	144.00	31.00	23.00	4.00	2.00
	-14.00	26.00	145.00	21.00	23.00	8.00	11.00
	-15.00	42.00	-20.00	-49.00	17.00	3.00	8.00
	-17.00	39.00	-120.00	-96.00	14.00	17.00	8.00
	-16.00	14.00	-137.00	-140.00	12.00	41.00	6.00
	1.00	24.00	-142.00	-90.00	7.00	67.00	-2.00
	15.00	-9.00	-149.00	4.00	2.00	80.00	-28.00
	14.00	-30.00	-119.00	120.00	0.00	85.00	-24.00
	10.00	-42.00	-85.00	111.00	-2.00	-29.00	-16.00
	14.00	-22.00	-54.00	110.00	-1.00	-135.00	-16.00
	21.00	-14.00	-7.00	0.00	9.00	-26.00	-1.00
	13.00	18.00	48.00	-37.00	23.00	-3.00	13.00
	15.00	28.00	128.00	-20.00	29.00	-17.00	22.00
	20.00	18.00	107.00	-37.00	31.00	10.00	29.00
	18.00	5.00	197.00	63.00	23.00	38.00	27.00
	14.00	16.00	163.00	84.00	29.00	-33.00	30.00
	14.00	15.00	86.00	44.00	28.00	-17.00	17.00
	10.00	21.00	89.00	51.00	30.00	13.00	13.00
	8.00	21.00	72.00	-6.00	30.00	13.00	13.00
	12.00	30.00	3.00	-116.00	29.00	7.00	7.00
	8.00	38.00	-79.00	-179.00	30.00	24.00	5.00
	4.00	42.00	-141.00	-248.00	21.00	19.00	-2.00
	2.00	36.00	-120.00	-113.00	17.00	7.00	-8.00
	1.00	10.00	-148.00	53.00	11.00	16.00	-19.00
	1.00	5.00	-106.00	210.00	8.00	15.00	-27.00
	1.00	25.00	-56.00	280.00	6.00	4.00	-15.00
	-8.00	53.00	64.00	203.00	4.00	19.00	-14.00
	-16.00	78.00	176.00	152.00	0.00	23.00	0.00
	-16.00	19.00	224.00	101.00	-4.00	46.00	-3.00
	-8.00	-23.00	73.00	-92.00	-3.00	40.00	-2.00
	-8.00	-23.00	-26.00	-193.00	-1.00	17.00	1.00
	-14.00	7.00	-48.00	-191.00	2.00	-45.00	-4.00
	-8.00	10.00	-32.00	-149.00	12.00	-91.00	5.00
	2.00	10.00	17.00	12.00	32.00	-89.00	16.00
	7.00	35.00	-33.00	154.00	25.00	62.00	11.00
	8.00	64.00	-183.00	159.00	26.00	-80.00	15.00
	19.00	89.00	-243.00	186.00	29.00	283.00	-8.00
	20.00	52.00	-271.00	41.00	33.00	124.00	-29.00
	19.00	-13.00	-283.00	-61.00	36.00	75.00	-13.00
	24.00	-91.00	-113.00	-8.00	39.00	31.00	5.00
	29.00	-82.00	173.00	-26.00	37.00	18.00	12.00
	23.00	-42.00	274.00	-10.00	22.00	12.00	21.00
	15.00	-31.00	170.00	11.00	14.00	11.00	30.00
	9.00	-13.00	203.00	-33.00	12.00	22.00	0.00
	-6.00	17.00	309.00	-67.00	6.00	-6.00	-10.00
	-16.00	39.00	357.00	-90.00	4.00	-102.00	-9.00
	-34.00	45.00	229.00	-37.00	5.00	-62.00	-12.00
	-34.00	33.00	63.00	-33.00	3.00	1.00	-11.00
	-29.00	17.00	-77.00	-46.00	4.00	53.00	-1.00
	-28.00	-14.00	-143.00	-46.00	7.00	39.00	0.00
	-12.00	-22.00	-111.00	-43.00	10.00	23.00	9.00
	-8.00	-3.00	-31.00	-46.00	10.00	60.00	4.00
	-4.00	7.00	-45.00	-111.00	13.00	-202.00	5.00
	1.00	32.00	-164.00	-152.00	20.00	-72.00	5.00
	6.00	59.00	-145.00	-146.00	23.00	4.00	13.00
	0.00	54.00	-165.00	-127.00	24.00	3.00	19.00
	3.00	-11.00	-299.00	-23.00	30.00	0.00	17.00
	7.00	-12.00	-306.00	96.00	28.00	6.00	14.00
	13.00	12.00	-159.00	224.00	28.00	-4.00	-1.00
	9.00	23.00	38.00	301.00	27.00	29.00	-10.00
	9.00	35.00	275.00	314.00	23.00	14.00	-25.00
	-2.00	44.00	299.00	221.00	15.00	13.00	-5.00
	2.00	45.00	210.00	86.00	-25.00	12.00	6.00
	8.00	51.00	180.00	-2.00	-37.00	27.00	10.00
	3.00	33.00	209.00	-8.00	-10.00	6.00	24.00
	0.00	29.00	216.00	104.00	18.00	3.00	24.00
	-9.00	26.00	93.00	215.00	36.00	11.00	13.00
	-22.00	21.00	35.00	164.00	35.00	20.00	5.00
	-28.00	21.00	23.00	141.00	17.00	29.00	-6.00
	-23.00	17.00	44.00	114.00	11.00	23.00	-6.00
	-22.00	12.00	28.00	7.00	7.00	51.00	-6.00
	-17.00	14.00	-14.00	-59.00	9.00	28.00	-12.00
	-12.00	18.00	-36.00	-109.00	16.00	21.00	-11.00
	-4.00	17.00	-9.00	-118.00	21.00	22.00	-10.00
	-8.00	26.00	-56.00	-140.00	16.00	38.00	0.00
	-4.00	44.00	-85.00	-104.00	15.00	67.00	13.00
	-1.00	35.00	-99.00	-37.00	14.00	57.00	13.00
	2.00	0.00	-135.00	-34.00	15.00	-62.00	23.00
	7.00	-16.00	-188.00	1.00	17.00	-65.00	15.00
	13.00	-23.00	-221.00	-9.00	17.00	-222.00	13.00
	18.00	-1.00	-170.00	-44.00	17.00	-104.00	16.00
	18.00	16.00	-114.00	-66.00	16.00	23.00	-5.00
	17.00	6.00	-72.00	-162.00	14.00	327.00	-21.00
	16.00	-4.00	31.00	-156.00	13.00	184.00	-19.00
	13.00	2.00	-25.00	-188.00	7.00	34.00	-18.00
	9.00	18.00	-75.00	-180.00	2.00	-37.00	-14.00
	10.00	23.00	-162.00	-139.00	0.00	5.00	2.00
	11.00	-14.00	-148.00	-10.00	1.00	-1.00	10.00
	9.00	-37.00	-17.00	73.00	6.00	-14.00	13.00
	9.00	-28.00	192.00	99.00	13.00	-30.00	12.00
	5.00	-5.00	366.00	163.00	18.00	-17.00	17.00
	-1.00	10.00	265.00	212.00	17.00	-42.00	18.00
	-6.00	14.00	84.00	118.00	9.00	9.00	3.00
	-4.00	10.00	-4.00	46.00	10.00	18.00	-2.00
	-3.00	17.00	-32.00	47.00	13.00	15.00	-3.00
	-4.00	13.00	-48.00	73.00	17.00	23.00	3.00
	-4.00	18.00	3.00	0.00	20.00	20.00	-10.00
	1.00	26.00	-40.00	-35.00	21.00	-1.00	-9.00
	3.00	23.00	-64.00	-57.00	19.00	-16.00	2.00
	5.00	26.00	-40.00	-60.00	23.00	-22.00	13.00
	4.00	24.00	28.00	36.00	19.00	-26.00	12.00
	2.00	32.00	136.00	135.00	13.00	-12.00	9.00
	7.00	38.00	144.00	77.00	8.00	36.00	8.00
	-2.00	40.00	45.00	10.00	2.00	38.00	-9.00
	-9.00	25.00	66.00	4.00	2.00	38.00	-23.00
	-10.00	39.00	99.00	-2.00	-2.00	24.00	-27.00
	-5.00	63.00	107.00	-38.00	-3.00	33.00	-24.00
	-2.00	76.00	-29.00	-116.00	-4.00	43.00	-19.00
	-11.00	28.00	-129.00	-257.00	-1.00	48.00	-20.00
	-15.00	4.00	-188.00	-315.00	2.00	67.00	-6.00
	-1.00	-43.00	-162.00	-153.00	8.00	50.00	-2.00
	0.00	-73.00	-151.00	-29.00	11.00	102.00	7.00
	6.00	-47.00	5.00	191.00	12.00	94.00	17.00
	0.00	7.00	123.00	348.00	12.00	-107.00	28.00
	-8.00	33.00	146.00	313.00	7.00	-251.00	12.00
	-6.00	37.00	165.00	277.00	11.00	-191.00	4.00
	-6.00	26.00	58.00	168.00	19.00	-23.00	7.00
	-10.00	24.00	28.00	87.00	24.00	6.00	7.00
	-17.00	16.00	-29.00	-72.00	26.00	7.00	-1.00
	-21.00	31.00	-99.00	-133.00	21.00	8.00	-3.00
	-22.00	16.00	-132.00	-102.00	16.00	5.00	-6.00
	-14.00	54.00	-81.00	68.00	13.00	13.00	0.00
	-14.00	63.00	-43.00	244.00	13.00	13.00	7.00
	-2.00	13.00	-125.00	226.00	6.00	57.00	-18.00
	9.00	-89.00	-178.00	68.00	2.00	66.00	-37.00
	17.00	-65.00	-131.00	-157.00	1.00	27.00	-29.00
	10.00	-29.00	-172.00	-392.00	-5.00	28.00	-24.00
	3.00	4.00	-17.00	-341.00	-7.00	30.00	-16.00
	-1.00	21.00	195.00	-186.00	0.00	18.00	-8.00
	-7.00	36.00	290.00	39.00	3.00	12.00	-8.00
	-2.00	35.00	393.00	121.00	8.00	4.00	-12.00
	-4.00	27.00	426.00	105.00	17.00	1.00	-14.00
	-12.00	12.00	375.00	120.00	18.00	8.00	-8.00
	-13.00	22.00	264.00	155.00	19.00	8.00	-1.00
	-12.00	36.00	86.00	113.00	23.00	21.00	6.00
	-12.00	38.00	-35.00	115.00	28.00	10.00	20.00
	-7.00	28.00	-81.00	108.00	28.00	11.00	26.00
	2.00	12.00	-125.00	10.00	31.00	22.00	24.00
	14.00	9.00	-62.00	-33.00	24.00	11.00	25.00
	15.00	12.00	-63.00	-85.00	19.00	-28.00	15.00
	17.00	8.00	-65.00	-70.00	14.00	-47.00	1.00
	18.00	22.00	-30.00	-48.00	11.00	-75.00	3.00
	20.00	45.00	-58.00	-83.00	1.00	-68.00	-5.00
	26.00	37.00	-141.00	-60.00	-1.00	173.00	-27.00
	23.00	35.00	-284.00	-33.00	-3.00	153.00	-18.00
	23.00	31.00	-404.00	-37.00	-3.00	73.00	-12.00
	23.00	4.00	-476.00	-51.00	-4.00	-13.00	-7.00
	35.00	-23.00	-266.00	-40.00	3.00	-57.00	2.00
	33.00	-5.00	141.00	-6.00	-24.00	-83.00	-8.00
	18.00	13.00	358.00	111.00	-23.00	-8.00	-6.00
	0.00	10.00	374.00	112.00	-2.00	298.00	-7.00
	-11.00	2.00	241.00	87.00	31.00	91.00	-1.00
	-18.00	0.00	169.00	101.00	57.00	44.00	9.00
	-24.00	4.00	107.00	82.00	61.00	-48.00	11.00
	-22.00	8.00	7.00	21.00	42.00	-84.00	19.00
	-17.00	21.00	-45.00	-52.00	33.00	-2.00	33.00
	-9.00	40.00	-44.00	-45.00	21.00	-7.00	16.00
	-1.00	67.00	-88.00	-55.00	21.00	-79.00	18.00
	7.00	52.00	-197.00	-158.00	24.00	-12.00	39.00
	14.00	-10.00	-258.00	-211.00	24.00	87.00	44.00
	23.00	-58.00	-277.00	-83.00	19.00	120.00	16.00
	29.00	-45.00	-229.00	65.00	11.00	15.00	12.00
	33.00	-28.00	-101.00	125.00	10.00	-100.00	19.00
	22.00	-5.00	55.00	177.00	9.00	-30.00	21.00
	10.00	8.00	134.00	94.00	2.00	-32.00	16.00
	7.00	21.00	292.00	31.00	-1.00	-41.00	0.00
	-2.00	30.00	220.00	-18.00	-3.00	-40.00	-5.00
	-8.00	26.00	59.00	-77.00	-2.00	-24.00	-8.00
	-13.00	16.00	14.00	-72.00	0.00	6.00	-20.00
	-22.00	3.00	88.00	-6.00	-4.00	25.00	-25.00
	-23.00	14.00	-51.00	-56.00	-3.00	22.00	-21.00
	-20.00	30.00	-177.00	4.00	6.00	63.00	-16.00
	-12.00	53.00	-209.00	42.00	7.00	40.00	-3.00
	-9.00	26.00	-194.00	48.00	6.00	6.00	10.00
	3.00	-16.00	1.00	-13.00	10.00	-9.00	7.00
	7.00	-12.00	216.00	-58.00	14.00	-46.00	1.00
	10.00	1.00	343.00	3.00	19.00	29.00	3.00
	25.00	7.00	211.00	5.00	24.00	91.00	11.00
	34.00	13.00	80.00	118.00	21.00	92.00	15.00
	29.00	22.00	-10.00	97.00	15.00	84.00	19.00
	25.00	24.00	-126.00	45.00	12.00	-30.00	25.00
	28.00	23.00	-175.00	71.00	8.00	-232.00	-1.00
	17.00	9.00	-166.00	54.00	7.00	-64.00	-23.00
	13.00	-14.00	-78.00	63.00	15.00	2.00	-18.00
	5.00	-3.00	-10.00	20.00	15.00	11.00	-11.00
	-7.00	3.00	194.00	-13.00	8.00	-21.00	-5.00
	-31.00	9.00	275.00	62.00	2.00	-26.00	-12.00
	-41.00	28.00	238.00	18.00	1.00	6.00	-4.00
	-50.00	53.00	200.00	-68.00	2.00	8.00	0.00
	-48.00	56.00	114.00	-74.00	4.00	25.00	1.00
	-47.00	34.00	67.00	1.00	10.00	38.00	13.00
	-39.00	8.00	6.00	27.00	13.00	21.00	13.00
	-30.00	16.00	-50.00	46.00	15.00	30.00	6.00
	-26.00	26.00	-84.00	56.00	20.00	40.00	10.00
	-12.00	26.00	-241.00	53.00	20.00	13.00	10.00
	-5.00	4.00	-303.00	-21.00	21.00	117.00	5.00
	-6.00	8.00	-283.00	-86.00	16.00	-1.00	0.00
	2.00	9.00	-135.00	-95.00	21.00	-134.00	6.00
	9.00	6.00	52.00	-67.00	24.00	-68.00	9.00
	11.00	-10.00	227.00	-28.00	20.00	-72.00	8.00
	10.00	-9.00	282.00	42.00	12.00	197.00	8.00
	15.00	7.00	110.00	89.00	15.00	116.00	14.00
	16.00	22.00	-28.00	47.00	13.00	117.00	4.00
	15.00	26.00	-82.00	8.00	9.00	40.00	-11.00
	9.00	34.00	-66.00	10.00	7.00	-8.00	-10.00
	11.00	37.00	20.00	22.00	4.00	-3.00	-3.00
	6.00	32.00	6.00	-28.00	0.00	-6.00	-5.00
	1.00	24.00	-29.00	-139.00	-3.00	-14.00	-4.00
	-1.00	29.00	-91.00	-147.00	0.00	-7.00	-12.00
	3.00	40.00	-185.00	-133.00	-1.00	10.00	-21.00
	21.00	32.00	-229.00	-72.00	1.00	38.00	-20.00
	26.00	2.00	-83.00	23.00	12.00	37.00	-13.00
	21.00	1.00	139.00	110.00	18.00	25.00	-3.00
	6.00	10.00	100.00	200.00	20.00	14.00	0.00
	-4.00	25.00	157.00	262.00	20.00	10.00	5.00
	-15.00	43.00	157.00	83.00	22.00	15.00	17.00
	-10.00	35.00	196.00	64.00	24.00	6.00	18.00
	-11.00	12.00	217.00	-14.00	24.00	-57.00	16.00
	-15.00	17.00	184.00	23.00	21.00	-23.00	13.00
	-12.00	9.00	135.00	112.00	16.00	3.00	0.00
	-9.00	-7.00	56.00	-21.00	13.00	-2.00	0.00
	-10.00	-1.00	-53.00	-90.00	11.00	0.00	3.00
	-13.00	12.00	-121.00	-110.00	9.00	-3.00	12.00
	-13.00	26.00	-102.00	-17.00	7.00	10.00	4.00
	-17.00	12.00	-128.00	95.00	2.00	16.00	-9.00
	-6.00	9.00	-83.00	108.00	6.00	20.00	2.00
	-1.00	-5.00	-70.00	61.00	-3.00	43.00	-8.00
	2.00	-3.00	-74.00	72.00	-7.00	39.00	0.00
	3.00	7.00	-17.00	66.00	0.00	59.00	3.00
	4.00	21.00	-35.00	-36.00	7.00	56.00	6.00
	4.00	40.00	28.00	-76.00	8.00	-121.00	12.00
	4.00	2.00	50.00	-80.00	8.00	-48.00	17.00
	4.00	-1.00	-4.00	-90.00	9.00	3.00	10.00
	1.00	12.00	-120.00	-114.00	10.00	-58.00	5.00
	-7.00	31.00	-249.00	-58.00	17.00	-28.00	4.00
	-7.00	26.00	-211.00	10.00	24.00	-21.00	-2.00
	-5.00	36.00	-131.00	25.00	24.00	28.00	-15.00
	-4.00	36.00	-58.00	-3.00	24.00	22.00	-19.00
	13.00	8.00	89.00	-45.00	31.00	47.00	-25.00
	16.00	-62.00	241.00	-15.00	39.00	13.00	-22.00
	19.00	-47.00	61.00	-28.00	28.00	-7.00	-12.00
	25.00	-14.00	-13.00	37.00	18.00	-19.00	-5.00
	19.00	19.00	-80.00	160.00	5.00	-6.00	-25.00
	16.00	34.00	-123.00	58.00	0.00	10.00	-21.00
	14.00	23.00	-80.00	-147.00	0.00	14.00	0.00
	8.00	37.00	34.00	-172.00	0.00	21.00	6.00
	3.00	14.00	229.00	-109.00	1.00	18.00	6.00
	2.00	-12.00	291.00	-5.00	5.00	6.00	4.00
	2.00	17.00	214.00	158.00	2.00	2.00	6.00
	1.00	28.00	122.00	243.00	2.00	11.00	3.00
	-6.00	32.00	156.00	232.00	4.00	14.00	-4.00
	-16.00	29.00	106.00	146.00	5.00	10.00	-1.00
	-17.00	22.00	46.00	66.00	15.00	8.00	9.00
	-20.00	8.00	0.00	21.00	21.00	10.00	11.00
	-18.00	39.00	-3.00	-26.00	25.00	6.00	20.00
	-15.00	54.00	19.00	-113.00	29.00	34.00	26.00
	-17.00	27.00	-24.00	-103.00	22.00	86.00	15.00
	-13.00	-29.00	-99.00	-53.00	22.00	100.00	5.00
	-2.00	-31.00	-228.00	-23.00	25.00	80.00	12.00
	7.00	-8.00	-321.00	35.00	21.00	-163.00	11.00
	7.00	-11.00	-364.00	18.00	15.00	-263.00	-2.00
	6.00	-8.00	-331.00	13.00	7.00	-80.00	-5.00
	18.00	7.00	-235.00	-121.00	5.00	28.00	-19.00
	19.00	25.00	-8.00	-335.00	1.00	16.00	-9.00
	15.00	22.00	251.00	-226.00	6.00	327.00	11.00
	5.00	11.00	280.00	66.00	11.00	102.00	2.00
	0.00	5.00	180.00	206.00	6.00	45.00	-12.00
	-3.00	6.00	204.00	321.00	3.00	5.00	-9.00
	-4.00	14.00	254.00	242.00	2.00	-9.00	0.00
	-15.00	28.00	255.00	162.00	0.00	-10.00	6.00
	-20.00	38.00	78.00	85.00	-9.00	-10.00	24.00
	-20.00	23.00	-16.00	6.00	-7.00	10.00	25.00
	-13.00	22.00	-14.00	-32.00	9.00	-3.00	41.00
	-10.00	31.00	-18.00	-57.00	16.00	-6.00	53.00
	-5.00	30.00	43.00	-69.00	-25.00	-3.00	47.00
	4.00	35.00	107.00	-65.00	-14.00	12.00	51.00
	8.00	27.00	66.00	-2.00	10.00	61.00	32.00
	9.00	22.00	-53.00	-14.00	41.00	25.00	18.00
	10.00	20.00	-60.00	21.00	57.00	3.00	15.00
	12.00	20.00	-10.00	45.00	58.00	3.00	20.00
	14.00	14.00	-30.00	32.00	41.00	-2.00	32.00
	11.00	13.00	-121.00	14.00	26.00	-5.00	43.00
	3.00	7.00	-180.00	16.00	14.00	8.00	35.00
	1.00	17.00	-171.00	-18.00	9.00	33.00	33.00
	6.00	-17.00	-144.00	-71.00	8.00	72.00	25.00
	18.00	-18.00	-182.00	10.00	2.00	48.00	21.00
	17.00	-8.00	-172.00	-89.00	-5.00	26.00	30.00
	14.00	-22.00	-184.00	-213.00	-9.00	-1.00	41.00
	9.00	-46.00	-127.00	-193.00	-7.00	36.00	23.00
	8.00	-7.00	102.00	-179.00	5.00	-134.00	22.00
	4.00	15.00	240.00	-83.00	9.00	-47.00	29.00
	-4.00	18.00	241.00	3.00	11.00	-8.00	31.00
	-4.00	15.00	147.00	98.00	20.00	-2.00	32.00
	-3.00	12.00	116.00	175.00	22.00	-10.00	29.00
	7.00	12.00	39.00	233.00	23.00	-15.00	27.00
	11.00	11.00	43.00	269.00	27.00	-19.00	22.00
	4.00	13.00	-72.00	235.00	16.00	21.00	8.00
	6.00	11.00	-87.00	109.00	19.00	39.00	5.00
	5.00	21.00	-30.00	-99.00	18.00	33.00	3.00
	4.00	26.00	77.00	-228.00	17.00	19.00	-1.00
	0.00	25.00	253.00	-76.00	20.00	-53.00	-1.00
	-3.00	32.00	301.00	38.00	12.00	-65.00	-14.00
	-10.00	22.00	210.00	67.00	6.00	87.00	-39.00
	-13.00	11.00	56.00	75.00	9.00	37.00	-38.00
	-11.00	0.00	-17.00	43.00	9.00	-15.00	-33.00
	-3.00	15.00	-47.00	38.00	10.00	-82.00	-18.00
	-3.00	43.00	-113.00	-15.00	0.00	-242.00	-32.00
	-10.00	70.00	-147.00	-61.00	0.00	15.00	-58.00
	-14.00	70.00	-140.00	-64.00	-1.00	120.00	-60.00
	-18.00	62.00	-152.00	-87.00	-9.00	207.00	-71.00
	-13.00	28.00	-61.00	-106.00	2.00	86.00	-57.00
	-8.00	20.00	48.00	-138.00	8.00	36.00	-46.00
	2.00	-1.00	35.00	-89.00	11.00	29.00	-42.00
	11.00	-17.00	-70.00	13.00	11.00	31.00	-41.00
	13.00	-43.00	-223.00	183.00	9.00	30.00	-34.00
	13.00	-35.00	-232.00	273.00	21.00	19.00	-24.00
	17.00	-12.00	-32.00	249.00	29.00	7.00	-19.00
	20.00	6.00	173.00	169.00	24.00	35.00	-20.00
	23.00	23.00	185.00	0.00	17.00	57.00	-23.00
	18.00	34.00	84.00	-23.00	17.00	10.00	-19.00
	13.00	44.00	-34.00	-38.00	17.00	3.00	-8.00
	8.00	18.00	-30.00	-32.00	14.00	-113.00	-22.00
	2.00	1.00	-77.00	3.00	8.00	-235.00	-43.00
	5.00	-7.00	-136.00	-71.00	5.00	195.00	-34.00
	6.00	3.00	-152.00	-200.00	0.00	80.00	-55.00
	4.00	13.00	-154.00	-232.00	-1.00	18.00	-41.00
	6.00	8.00	-71.00	-219.00	0.00	2.00	-39.00
	3.00	20.00	79.00	-111.00	5.00	-6.00	-31.00
	-1.00	51.00	111.00	91.00	9.00	-10.00	-23.00
	-4.00	64.00	121.00	252.00	9.00	-16.00	-20.00
	-8.00	10.00	149.00	194.00	10.00	-4.00	-19.00
	0.00	9.00	108.00	-8.00	10.00	-4.00	-8.00
	0.00	-20.00	72.00	-66.00	11.00	0.00	-1.00
	7.00	-11.00	-8.00	-65.00	15.00	16.00	12.00
	6.00	-6.00	-32.00	-65.00	20.00	40.00	8.00
	-3.00	12.00	-5.00	-61.00	27.00	52.00	10.00
	-10.00	32.00	170.00	75.00	21.00	-4.00	-10.00
	-15.00	42.00	330.00	240.00	22.00	-19.00	-25.00
	-18.00	36.00	264.00	222.00	21.00	-13.00	-19.00
	-26.00	11.00	113.00	206.00	24.00	13.00	-9.00
	-30.00	27.00	1.00	154.00	18.00	47.00	-1.00
	-29.00	26.00	-6.00	55.00	10.00	35.00	5.00
	-23.00	7.00	8.00	23.00	6.00	84.00	41.00
	-12.00	-3.00	50.00	10.00	7.00	9.00	57.00
	-5.00	-3.00	61.00	28.00	6.00	-137.00	27.00
	1.00	25.00	-28.00	69.00	-6.00	-102.00	-16.00
	5.00	30.00	-184.00	35.00	-6.00	51.00	-20.00
	14.00	12.00	-272.00	-118.00	-1.00	24.00	-14.00
	19.00	17.00	-269.00	-233.00	2.00	14.00	-12.00
	21.00	18.00	-201.00	-217.00	2.00	8.00	-3.00
	18.00	19.00	-10.00	-141.00	2.00	19.00	3.00
	13.00	10.00	16.00	-119.00	18.00	16.00	4.00
	8.00	2.00	-43.00	-48.00	17.00	3.00	4.00
	8.00	14.00	7.00	25.00	11.00	43.00	-1.00
	1.00	14.00	98.00	87.00	15.00	8.00	-3.00
	-4.00	12.00	205.00	140.00	24.00	6.00	6.00
	-3.00	5.00	158.00	110.00	20.00	10.00	3.00
	-1.00	0.00	77.00	62.00	17.00	5.00	4.00
	0.00	-3.00	18.00	23.00	15.00	8.00	6.00
	0.00	16.00	-52.00	-38.00	15.00	20.00	7.00
	0.00	24.00	-95.00	11.00	11.00	14.00	9.00
	-1.00	23.00	-94.00	29.00	5.00	1.00	10.00
	0.00	32.00	-97.00	22.00	3.00	5.00	16.00
	-1.00	26.00	-60.00	28.00	2.00	29.00	16.00
	1.00	-2.00	28.00	1.00	-2.00	48.00	2.00
	4.00	9.00	25.00	-88.00	-3.00	30.00	-9.00
	17.00	27.00	-101.00	-64.00	-6.00	50.00	20.00
	29.00	35.00	-254.00	-77.00	-8.00	-17.00	14.00
	24.00	16.00	-318.00	-106.00	-1.00	-52.00	4.00
	21.00	26.00	-279.00	-60.00	-2.00	240.00	-10.00
	18.00	13.00	-154.00	51.00	-1.00	215.00	-9.00
	14.00	-3.00	55.00	131.00	5.00	141.00	10.00
	2.00	6.00	162.00	51.00	6.00	-286.00	10.00
	-14.00	18.00	100.00	-22.00	7.00	-224.00	10.00
	-21.00	23.00	50.00	-137.00	22.00	-56.00	20.00
	-23.00	25.00	69.00	-252.00	26.00	-71.00	28.00
	-24.00	10.00	121.00	-181.00	19.00	11.00	19.00
	-22.00	3.00	136.00	-73.00	21.00	32.00	15.00
	-29.00	10.00	136.00	-15.00	25.00	-16.00	13.00
	-31.00	23.00	208.00	101.00	24.00	-10.00	13.00
	-33.00	30.00	275.00	286.00	22.00	0.00	12.00
	-38.00	36.00	198.00	342.00	22.00	8.00	12.00
	-33.00	58.00	-28.00	177.00	16.00	6.00	7.00
	-25.00	59.00	-164.00	24.00	12.00	13.00	-4.00
	-20.00	-6.00	-169.00	-12.00	7.00	8.00	-16.00
	-12.00	-63.00	-160.00	-54.00	3.00	12.00	-14.00
	-10.00	-73.00	-158.00	-64.00	0.00	15.00	-6.00
	-11.00	-8.00	-17.00	15.00	1.00	12.00	1.00
	-9.00	4.00	251.00	145.00	6.00	8.00	2.00
	-17.00	21.00	242.00	104.00	0.00	10.00	7.00
	-36.00	22.00	119.00	45.00	4.00	13.00	16.00
	-57.00	22.00	182.00	49.00	9.00	15.00	21.00
	-69.00	19.00	229.00	-30.00	12.00	14.00	16.00
	-71.00	21.00	168.00	-42.00	20.00	13.00	17.00
	-68.00	25.00	135.00	26.00	25.00	13.00	12.00
	-65.00	23.00	75.00	55.00	26.00	9.00	12.00
	-55.00	20.00	-17.00	73.00	23.00	11.00	5.00
	-39.00	24.00	-57.00	60.00	-1.00	8.00	5.00
	-28.00	30.00	-94.00	19.00	-18.00	6.00	2.00
	-19.00	17.00	-109.00	-33.00	1.00	10.00	6.00
	-3.00	-10.00	-156.00	-78.00	26.00	22.00	0.00
	17.00	0.00	-262.00	-111.00	48.00	30.00	-8.00
	34.00	13.00	-301.00	-109.00	54.00	30.00	-14.00
	55.00	14.00	-230.00	-92.00	43.00	8.00	-15.00
	71.00	-1.00	-67.00	13.00	27.00	-17.00	-14.00
	69.00	-26.00	-27.00	81.00	16.00	-27.00	-27.00
	69.00	-29.00	47.00	90.00	5.00	-5.00	-2.00
	81.00	-25.00	2.00	32.00	2.00	49.00	1.00
	88.00	-10.00	-59.00	2.00	0.00	56.00	-8.00
	87.00	-1.00	-108.00	18.00	-3.00	24.00	-3.00
	87.00	3.00	-188.00	48.00	-9.00	32.00	6.00
	81.00	-6.00	-27.00	69.00	-6.00	26.00	-14.00
	73.00	17.00	259.00	45.00	4.00	19.00	-11.00
	66.00	38.00	347.00	31.00	10.00	13.00	-5.00
	62.00	44.00	173.00	-52.00	17.00	14.00	-6.00
	53.00	46.00	12.00	-118.00	19.00	25.00	5.00
	43.00	25.00	-17.00	-112.00	17.00	29.00	18.00
	43.00	0.00	-2.00	-53.00	19.00	24.00	23.00
	42.00	-34.00	46.00	-38.00	25.00	-17.00	11.00
	48.00	0.00	96.00	-70.00	26.00	-17.00	8.00
	39.00	22.00	70.00	-155.00	22.00	-10.00	8.00
	29.00	36.00	11.00	-140.00	11.00	-21.00	14.00
	19.00	42.00	-70.00	-90.00	12.00	-10.00	9.00
	12.00	46.00	-111.00	-79.00	10.00	5.00	-4.00
	11.00	45.00	-86.00	-14.00	8.00	18.00	-7.00
	4.00	39.00	-41.00	161.00	1.00	59.00	-18.00
	-6.00	43.00	29.00	159.00	-2.00	-5.00	-4.00
	-9.00	48.00	64.00	102.00	0.00	-59.00	10.00
	-13.00	39.00	39.00	96.00	0.00	-56.00	1.00
	-13.00	32.00	-35.00	75.00	2.00	-62.00	-9.00
	-11.00	24.00	-49.00	84.00	3.00	-68.00	6.00
	0.00	17.00	-49.00	129.00	1.00	-42.00	-29.00
	4.00	25.00	-36.00	132.00	2.00	96.00	-33.00
	-2.00	25.00	-138.00	80.00	8.00	46.00	-16.00
	-9.00	42.00	-183.00	47.00	15.00	-54.00	14.00
	1.00	20.00	-186.00	-39.00	26.00	256.00	27.00
	3.00	-28.00	-110.00	-7.00	29.00	81.00	33.00
	-3.00	-44.00	-75.00	-31.00	23.00	-8.00	38.00
	-8.00	4.00	24.00	22.00	21.00	31.00	33.00
	-14.00	45.00	130.00	97.00	16.00	60.00	10.00
	-15.00	36.00	114.00	69.00	17.00	38.00	21.00
	-27.00	-23.00	74.00	-44.00	16.00	26.00	26.00
	-36.00	-28.00	-8.00	-102.00	10.00	24.00	15.00
	-27.00	-5.00	-100.00	-137.00	10.00	16.00	13.00
	-26.00	-16.00	-77.00	-131.00	9.00	11.00	9.00
	-25.00	3.00	120.00	-6.00	12.00	-6.00	9.00
	-26.00	8.00	84.00	23.00	13.00	-32.00	9.00
	-28.00	1.00	54.00	45.00	6.00	-5.00	5.00
	-36.00	-6.00	36.00	43.00	1.00	91.00	4.00
	-35.00	8.00	214.00	149.00	2.00	123.00	1.00
	-43.00	11.00	271.00	151.00	8.00	102.00	0.00
	-47.00	20.00	247.00	118.00	12.00	28.00	-4.00
	-39.00	46.00	265.00	74.00	11.00	-216.00	-20.00
	-22.00	58.00	229.00	-80.00	15.00	-305.00	-14.00
	-12.00	41.00	116.00	-158.00	12.00	-119.00	8.00
	-10.00	-8.00	58.00	-77.00	17.00	-37.00	3.00
	-4.00	15.00	-38.00	41.00	16.00	-20.00	0.00
	4.00	31.00	-103.00	82.00	20.00	-9.00	30.00
	1.00	42.00	-122.00	64.00	17.00	8.00	37.00
	1.00	31.00	-127.00	70.00	8.00	23.00	11.00
	3.00	-2.00	-104.00	-64.00	10.00	107.00	-4.00
	11.00	-6.00	-120.00	-137.00	18.00	36.00	-13.00
	15.00	-1.00	-179.00	-161.00	19.00	-25.00	-10.00
	17.00	15.00	-267.00	-96.00	10.00	41.00	-8.00
	13.00	11.00	-288.00	-37.00	8.00	41.00	-13.00
	13.00	-1.00	-158.00	-32.00	7.00	23.00	-5.00
	13.00	2.00	-107.00	-43.00	4.00	22.00	-2.00
	18.00	-4.00	-136.00	-115.00	-2.00	25.00	-8.00
	14.00	-12.00	-154.00	-109.00	-1.00	25.00	-7.00
	9.00	-11.00	-219.00	-165.00	3.00	18.00	-7.00
	-3.00	17.00	-201.00	-79.00	5.00	18.00	5.00
	-4.00	35.00	40.00	218.00	8.00	13.00	15.00
	-7.00	16.00	300.00	294.00	18.00	19.00	12.00
	-10.00	-33.00	406.00	176.00	21.00	19.00	5.00
	-17.00	-18.00	333.00	138.00	25.00	0.00	1.00
	-28.00	5.00	330.00	86.00	22.00	-9.00	7.00
	-27.00	17.00	379.00	95.00	22.00	4.00	0.00
	-29.00	17.00	382.00	106.00	28.00	3.00	-5.00
	-38.00	25.00	284.00	106.00	25.00	3.00	-6.00
	-41.00	29.00	129.00	112.00	19.00	6.00	-10.00
	-36.00	31.00	-15.00	46.00	15.00	-2.00	-11.00
	-24.00	39.00	-73.00	-13.00	14.00	-56.00	-11.00
	-18.00	43.00	-120.00	-52.00	9.00	-46.00	-6.00
	-13.00	50.00	-105.00	-121.00	5.00	-11.00	-4.00
	-5.00	34.00	-167.00	-145.00	5.00	-4.00	-3.00
	6.00	24.00	-209.00	-83.00	7.00	276.00	0.00
	4.00	14.00	-213.00	-27.00	3.00	119.00	-5.00
	4.00	-11.00	-137.00	53.00	0.00	-137.00	-6.00
	12.00	-23.00	-42.00	147.00	9.00	-58.00	-20.00
	17.00	-8.00	-49.00	92.00	9.00	18.00	-44.00
	14.00	15.00	-10.00	27.00	3.00	62.00	-35.00
	16.00	20.00	-24.00	9.00	5.00	12.00	-12.00
	22.00	18.00	7.00	-27.00	15.00	128.00	6.00
	18.00	8.00	56.00	-33.00	15.00	40.00	3.00
	13.00	0.00	2.00	-35.00	15.00	-44.00	9.00
	18.00	0.00	-64.00	-36.00	-8.00	2.00	21.00
	20.00	3.00	-70.00	-3.00	-18.00	71.00	12.00
	19.00	12.00	-98.00	65.00	4.00	62.00	11.00
	11.00	17.00	-84.00	64.00	31.00	38.00	14.00
	7.00	21.00	-77.00	-5.00	54.00	32.00	11.00
	3.00	24.00	-20.00	2.00	63.00	-55.00	4.00
	1.00	30.00	38.00	-63.00	56.00	-33.00	-2.00
	-2.00	33.00	61.00	-164.00	35.00	-6.00	-7.00
	-7.00	20.00	39.00	-125.00	9.00	-1.00	-19.00
	-8.00	16.00	4.00	-90.00	2.00	19.00	-20.00
	-9.00	27.00	-79.00	-60.00	-1.00	-8.00	-20.00
	-10.00	31.00	-115.00	-64.00	-3.00	-155.00	-12.00
	-5.00	10.00	-131.00	-98.00	-10.00	-51.00	4.00
	1.00	11.00	-58.00	-63.00	-9.00	12.00	24.00
	12.00	27.00	-23.00	2.00	-6.00	59.00	18.00
	15.00	38.00	77.00	80.00	-1.00	84.00	18.00
	9.00	36.00	134.00	45.00	4.00	103.00	20.00
	1.00	23.00	116.00	102.00	4.00	78.00	14.00
	-5.00	22.00	132.00	161.00	8.00	-181.00	22.00
	3.00	23.00	79.00	170.00	16.00	-74.00	5.00
	6.00	18.00	-42.00	65.00	16.00	-1.00	0.00
	8.00	7.00	-139.00	-6.00	16.00	-5.00	2.00
	18.00	-11.00	-86.00	-11.00	22.00	-6.00	2.00
	23.00	-25.00	-19.00	1.00	23.00	20.00	-8.00
	17.00	-13.00	57.00	-63.00	23.00	9.00	-10.00
	11.00	12.00	118.00	-261.00	18.00	7.00	-9.00
	12.00	31.00	110.00	-176.00	13.00	1.00	-10.00
	4.00	30.00	80.00	-80.00	7.00	-2.00	10.00
	2.00	-8.00	121.00	45.00	9.00	-11.00	22.00
	-8.00	-26.00	82.00	230.00	0.00	-10.00	43.00
	-13.00	11.00	51.00	216.00	0.00	56.00	38.00
	-18.00	52.00	-7.00	230.00	-1.00	23.00	-2.00
	-16.00	54.00	-83.00	127.00	-7.00	35.00	-21.00
	-11.00	0.00	-131.00	98.00	-4.00	25.00	-15.00
	-13.00	-7.00	-118.00	69.00	0.00	84.00	-5.00
	-12.00	-18.00	-19.00	-52.00	3.00	82.00	-6.00
	-8.00	-15.00	54.00	-99.00	5.00	70.00	3.00
	-12.00	-18.00	124.00	-142.00	12.00	69.00	11.00
	-14.00	-25.00	179.00	-90.00	21.00	-110.00	2.00
	-5.00	4.00	128.00	8.00	22.00	-104.00	0.00
	9.00	37.00	-18.00	43.00	29.00	-3.00	7.00
	7.00	57.00	-184.00	-12.00	25.00	19.00	-1.00
	12.00	50.00	-255.00	-36.00	23.00	24.00	2.00
	11.00	38.00	-206.00	-104.00	14.00	19.00	-3.00
	8.00	25.00	-5.00	-52.00	15.00	24.00	-5.00
	-1.00	20.00	149.00	17.00	15.00	26.00	-5.00
	7.00	25.00	266.00	75.00	16.00	9.00	-3.00
	11.00	20.00	226.00	134.00	12.00	-8.00	-3.00
	1.00	-2.00	162.00	166.00	1.00	11.00	0.00
	-10.00	1.00	160.00	233.00	1.00	13.00	2.00
	-12.00	2.00	29.00	171.00	1.00	-54.00	1.00
	-14.00	-21.00	-130.00	91.00	-2.00	-96.00	-3.00
	-11.00	-6.00	-143.00	73.00	-1.00	-124.00	2.00
	-17.00	14.00	-53.00	30.00	1.00	-122.00	1.00
	-19.00	26.00	48.00	-38.00	2.00	-103.00	3.00
	-16.00	35.00	132.00	-71.00	0.00	160.00	-1.00
	-19.00	38.00	184.00	-82.00	3.00	332.00	-26.00
	-24.00	22.00	48.00	-82.00	12.00	153.00	-21.00
	-23.00	-3.00	-63.00	-29.00	15.00	82.00	-13.00
	-9.00	-9.00	-51.00	10.00	19.00	59.00	-8.00
	4.00	-7.00	-48.00	-58.00	22.00	28.00	7.00
	14.00	31.00	-62.00	-138.00	22.00	-11.00	15.00
	19.00	62.00	-151.00	-165.00	21.00	-92.00	14.00
	22.00	45.00	-212.00	-93.00	20.00	-33.00	1.00
	27.00	-1.00	-204.00	-33.00	21.00	-11.00	-9.00
	35.00	-12.00	-142.00	58.00	22.00	3.00	-12.00
	38.00	15.00	-45.00	36.00	20.00	53.00	-9.00
	31.00	39.00	39.00	46.00	17.00	9.00	-8.00
	20.00	54.00	36.00	-26.00	11.00	0.00	4.00
	18.00	48.00	38.00	-25.00	8.00	17.00	10.00
	17.00	19.00	54.00	23.00	-1.00	28.00	2.00
	15.00	9.00	7.00	-6.00	0.00	8.00	-3.00
	21.00	-8.00	-46.00	-27.00	0.00	-21.00	-3.00
	19.00	-8.00	-37.00	5.00	0.00	-41.00	-1.00
	9.00	-5.00	-102.00	-45.00	-2.00	-19.00	-2.00
	-2.00	13.00	-124.00	-70.00	3.00	32.00	2.00
	-11.00	19.00	-21.00	-86.00	8.00	30.00	-9.00
	-12.00	11.00	46.00	-20.00	7.00	7.00	-2.00
	-17.00	22.00	-4.00	61.00	10.00	7.00	6.00
	-20.00	27.00	79.00	44.00	18.00	5.00	2.00
	-21.00	32.00	219.00	34.00	21.00	8.00	9.00
	-24.00	35.00	261.00	68.00	21.00	13.00	15.00
	-23.00	16.00	226.00	141.00	29.00	-11.00	12.00
	-22.00	-1.00	138.00	79.00	26.00	-20.00	9.00
	-27.00	1.00	117.00	71.00	19.00	12.00	2.00
	-24.00	-5.00	66.00	57.00	14.00	76.00	-6.00
	-9.00	-28.00	5.00	149.00	9.00	86.00	2.00
	6.00	-42.00	-46.00	161.00	9.00	74.00	14.00
	13.00	-18.00	-75.00	91.00	6.00	-39.00	26.00
	17.00	5.00	-83.00	32.00	8.00	-254.00	15.00
	16.00	23.00	-121.00	-74.00	7.00	-51.00	12.00
	13.00	36.00	-111.00	-137.00	-4.00	44.00	-4.00
	13.00	32.00	-15.00	-69.00	-3.00	40.00	2.00
	16.00	22.00	-94.00	-7.00	0.00	18.00	1.00
	24.00	7.00	-221.00	-17.00	6.00	5.00	-8.00
	24.00	-1.00	-266.00	-93.00	3.00	18.00	-5.00
	21.00	6.00	-84.00	-91.00	7.00	17.00	8.00
	19.00	0.00	55.00	-81.00	14.00	8.00	23.00
	22.00	-1.00	40.00	-78.00	18.00	8.00	29.00
	17.00	0.00	159.00	-15.00	19.00	11.00	18.00
	8.00	4.00	71.00	15.00	23.00	11.00	6.00
	2.00	9.00	-102.00	50.00	19.00	16.00	-7.00
	3.00	1.00	-125.00	78.00	18.00	21.00	-6.00
	4.00	0.00	33.00	104.00	19.00	15.00	-7.00
	6.00	16.00	168.00	125.00	16.00	16.00	-5.00
	9.00	31.00	63.00	109.00	15.00	15.00	-2.00
	8.00	28.00	-27.00	43.00	15.00	33.00	3.00
	-3.00	4.00	17.00	1.00	10.00	96.00	2.00
	-11.00	14.00	168.00	-2.00	5.00	101.00	4.00
	-10.00	30.00	234.00	27.00	3.00	87.00	0.00
