
20.00	66.00	-94.00	62.00	-36.00	-3.00	-48.00
24.00	39.00	-104.00	30.00	-44.00	24.00	-42.00
30.00	25.00	-62.00	-23.00	-48.00	30.00	-19.00
14.00	8.00	-52.00	-63.00	-18.00	30.00	-20.00
-2.00	16.00	-18.00	-7.00	-2.00	37.00	-34.00
-21.00	-10.00	-2.00	104.00	-4.00	24.00	-39.00
-44.00	-42.00	-1.00	81.00	4.00	-34.00	-11.00
-58.00	-56.00	-17.00	55.00	21.00	-5.00	-9.00
-66.00	-48.00	18.00	41.00	29.00	37.00	-12.00
-55.00	-16.00	-16.00	20.00	52.00	55.00	14.00
-47.00	15.00	-53.00	20.00	65.00	-14.00	20.00
-40.00	46.00	-46.00	2.00	78.00	52.00	20.00
-24.00	53.00	-27.00	-68.00	56.00	-35.00	18.00
4.00	24.00	-106.00	-176.00	26.00	-33.00	-8.00
32.00	-16.00	-207.00	-264.00	10.00	38.00	-7.00
48.00	-42.00	-355.00	-309.00	0.00	39.00	7.00
62.00	-34.00	-325.00	-285.00	3.00	23.00	7.00
65.00	-3.00	-146.00	-219.00	-6.00	16.00	-9.00
56.00	3.00	123.00	-86.00	-19.00	35.00	-1.00
32.00	29.00	260.00	70.00	-53.00	9.00	9.00
16.00	35.00	408.00	215.00	-70.00	8.00	11.00
4.00	47.00	292.00	265.00	-48.00	7.00	6.00
-18.00	60.00	105.00	226.00	-24.00	-2.00	13.00
-22.00	48.00	5.00	133.00	-6.00	-30.00	18.00
-21.00	22.00	-65.00	41.00	24.00	-22.00	20.00
-21.00	10.00	-75.00	-6.00	37.00	7.00	17.00
-22.00	0.00	-110.00	23.00	46.00	27.00	5.00
-20.00	-2.00	-116.00	34.00	53.00	38.00	6.00
-15.00	9.00	-128.00	43.00	53.00	23.00	13.00
-14.00	27.00	-69.00	10.00	59.00	64.00	-1.00
-17.00	32.00	-35.00	-22.00	44.00	77.00	-5.00
-27.00	29.00	-56.00	-10.00	51.00	38.00	-22.00
-29.00	23.00	-50.00	9.00	40.00	-18.00	-5.00
-36.00	12.00	45.00	84.00	31.00	-42.00	2.00
-64.00	-9.00	79.00	66.00	33.00	-81.00	-12.00
-75.00	-16.00	62.00	71.00	45.00	-96.00	-3.00
-79.00	-12.00	9.00	33.00	53.00	11.00	-6.00
-58.00	-5.00	60.00	36.00	45.00	-2.00	-2.00
-48.00	-2.00	136.00	41.00	42.00	6.00	1.00
-30.00	47.00	90.00	1.00	24.00	26.00	-6.00
-11.00	107.00	93.00	-42.00	-2.00	27.00	-6.00
7.00	112.00	52.00	-47.00	-12.00	48.00	-3.00
34.00	92.00	-89.00	-37.00	-13.00	50.00	-2.00
37.00	78.00	-206.00	-24.00	-13.00	32.00	-2.00
16.00	30.00	-194.00	-33.00	-24.00	-46.00	9.00
6.00	-24.00	-83.00	-44.00	-19.00	-46.00	18.00
7.00	-18.00	43.00	-71.00	28.00	49.00	0.00
8.00	13.00	212.00	-70.00	23.00	-21.00	-20.00
19.00	35.00	340.00	-104.00	-5.00	6.00	-8.00
23.00	62.00	263.00	-126.00	-2.00	65.00	-24.00
9.00	53.00	134.00	-84.00	8.00	-2.00	-7.00
14.00	32.00	77.00	-17.00	29.00	9.00	-15.00
25.00	9.00	63.00	93.00	21.00	-27.00	-20.00
48.00	-7.00	26.00	186.00	8.00	-32.00	-2.00
62.00	-30.00	-10.00	185.00	0.00	9.00	1.00
78.00	-42.00	-20.00	135.00	-29.00	33.00	-4.00
69.00	-35.00	-44.00	68.00	-67.00	34.00	5.00
74.00	-18.00	-85.00	12.00	-106.00	-4.00	16.00
87.00	-16.00	-22.00	-12.00	-101.00	9.00	30.00
112.00	2.00	-51.00	-98.00	-85.00	-10.00	18.00
111.00	13.00	-107.00	-211.00	-70.00	-6.00	16.00
95.00	0.00	-162.00	-265.00	-21.00	38.00	21.00
94.00	-15.00	-176.00	-284.00	21.00	23.00	11.00
105.00	-20.00	-141.00	-240.00	60.00	-14.00	4.00
130.00	-28.00	-86.00	-94.00	83.00	9.00	16.00
144.00	-45.00	61.00	86.00	115.00	13.00	14.00
160.00	-59.00	94.00	271.00	142.00	5.00	16.00
158.00	-33.00	-30.00	274.00	195.00	0.00	18.00
147.00	-13.00	-74.00	189.00	212.00	6.00	9.00
131.00	-18.00	-14.00	130.00	180.00	8.00	-5.00
113.00	-16.00	-160.00	77.00	138.00	17.00	6.00
72.00	-1.00	-180.00	-59.00	69.00	16.00	-18.00
41.00	4.00	61.00	-135.00	-31.00	21.00	-54.00
6.00	23.00	126.00	-80.00	-72.00	31.00	-65.00
-38.00	18.00	103.00	2.00	-82.00	47.00	-41.00
-68.00	-15.00	88.00	82.00	-69.00	49.00	-4.00
-94.00	-25.00	-22.00	114.00	-41.00	37.00	18.00
-118.00	-22.00	-67.00	176.00	-32.00	-5.00	17.00
-109.00	-20.00	-47.00	148.00	-13.00	-66.00	9.00
-103.00	-10.00	-38.00	45.00	35.00	4.00	8.00
-114.00	20.00	-68.00	7.00	84.00	28.00	2.00
-119.00	49.00	8.00	44.00	98.00	5.00	6.00
-118.00	61.00	108.00	58.00	93.00	13.00	3.00
-119.00	39.00	85.00	66.00	69.00	32.00	3.00
-131.00	19.00	66.00	-65.00	51.00	38.00	7.00
-151.00	-24.00	-3.00	-136.00	31.00	35.00	33.00
-157.00	-38.00	-167.00	-167.00	-43.00	3.00	43.00
-163.00	-24.00	-203.00	-224.00	-88.00	20.00	40.00
-159.00	18.00	-193.00	-201.00	-102.00	15.00	-1.00
-161.00	53.00	-69.00	-46.00	-90.00	8.00	2.00
-166.00	52.00	141.00	137.00	-75.00	0.00	6.00
-170.00	91.00	332.00	240.00	-66.00	-13.00	-4.00
-164.00	117.00	310.00	230.00	-28.00	-4.00	-25.00
-144.00	113.00	220.00	216.00	-4.00	0.00	-24.00
-126.00	77.00	160.00	114.00	13.00	7.00	-19.00
-120.00	35.00	83.00	59.00	38.00	7.00	-8.00
-107.00	9.00	58.00	29.00	59.00	4.00	1.00
-86.00	9.00	2.00	5.00	60.00	-7.00	-7.00
-58.00	7.00	-61.00	-4.00	62.00	17.00	4.00
-32.00	-1.00	-80.00	-6.00	52.00	37.00	13.00
0.00	30.00	-124.00	-64.00	41.00	46.00	-2.00
28.00	49.00	-145.00	-163.00	35.00	34.00	-6.00
39.00	32.00	-92.00	-212.00	39.00	14.00	-13.00
45.00	36.00	-150.00	-224.00	28.00	-27.00	-14.00
20.00	53.00	-146.00	-188.00	35.00	53.00	-6.00
20.00	51.00	2.00	-70.00	23.00	67.00	-4.00
20.00	38.00	115.00	33.00	7.00	30.00	7.00
26.00	7.00	305.00	156.00	-10.00	-9.00	30.00
47.00	-15.00	395.00	248.00	-39.00	-30.00	12.00
55.00	-5.00	282.00	215.00	-86.00	-12.00	-19.00
47.00	5.00	119.00	77.00	-87.00	-25.00	-4.00
54.00	-6.00	-3.00	-25.00	-56.00	-13.00	-12.00
101.00	24.00	-13.00	-40.00	-22.00	25.00	-6.00
124.00	38.00	-22.00	-84.00	-9.00	52.00	-6.00
111.00	15.00	-130.00	-100.00	-20.00	50.00	-8.00
102.00	-12.00	-165.00	-98.00	-18.00	-16.00	-2.00
93.00	-25.00	-173.00	-10.00	-11.00	-118.00	6.00
98.00	-23.00	-118.00	84.00	14.00	-13.00	-5.00
117.00	-11.00	-65.00	267.00	12.00	2.00	-5.00
128.00	20.00	75.00	333.00	-2.00	-18.00	3.00
97.00	28.00	180.00	246.00	11.00	-10.00	14.00
40.00	40.00	126.00	104.00	26.00	18.00	17.00
3.00	16.00	43.00	-10.00	40.00	36.00	3.00
-12.00	-11.00	66.00	-56.00	38.00	48.00	-1.00
-13.00	-23.00	42.00	-50.00	48.00	64.00	5.00
-9.00	-20.00	-77.00	5.00	15.00	35.00	9.00
-6.00	24.00	-114.00	33.00	-8.00	12.00	13.00
-7.00	66.00	-72.00	21.00	12.00	-106.00	9.00
22.00	94.00	-98.00	-53.00	39.00	-45.00	7.00
56.00	87.00	-130.00	-88.00	45.00	15.00	7.00
82.00	60.00	-112.00	-103.00	57.00	-6.00	-1.00
105.00	23.00	-56.00	-111.00	42.00	-38.00	1.00
106.00	-16.00	0.00	-107.00	30.00	2.00	12.00
91.00	-46.00	34.00	-66.00	14.00	10.00	-1.00
82.00	-52.00	10.00	-66.00	11.00	26.00	-2.00
69.00	-44.00	13.00	-66.00	18.00	37.00	2.00
63.00	-30.00	-62.00	-90.00	15.00	37.00	1.00
46.00	-14.00	-105.00	-126.00	-9.00	-10.00	6.00
27.00	-11.00	-119.00	-92.00	-7.00	-18.00	-6.00
12.00	29.00	-91.00	-124.00	28.00	11.00	-23.00
-7.00	37.00	0.00	-98.00	61.00	50.00	-11.00
-1.00	41.00	142.00	-7.00	46.00	30.00	-12.00
-9.00	47.00	87.00	58.00	21.00	-29.00	-12.00
-15.00	30.00	-16.00	81.00	50.00	-1.00	-4.00
-30.00	25.00	-109.00	102.00	80.00	30.00	9.00
-38.00	4.00	-82.00	80.00	80.00	-2.00	13.00
-48.00	-15.00	-14.00	55.00	62.00	22.00	-19.00
-53.00	-6.00	35.00	32.00	47.00	42.00	-28.00
-54.00	6.00	77.00	15.00	32.00	33.00	-15.00
-58.00	10.00	110.00	57.00	17.00	-3.00	9.00
-53.00	14.00	93.00	84.00	17.00	-5.00	-3.00
-40.00	11.00	104.00	65.00	8.00	16.00	-9.00
-32.00	18.00	145.00	52.00	-2.00	21.00	2.00
-14.00	26.00	133.00	94.00	-11.00	21.00	11.00
-5.00	75.00	56.00	86.00	-5.00	22.00	11.00
1.00	124.00	21.00	53.00	5.00	-9.00	11.00
6.00	123.00	-57.00	-27.00	27.00	7.00	2.00
12.00	68.00	-125.00	-109.00	25.00	52.00	1.00
1.00	7.00	-151.00	-142.00	-1.00	22.00	0.00
-11.00	-43.00	-112.00	-154.00	-6.00	4.00	3.00
-25.00	-81.00	-67.00	-167.00	17.00	-14.00	10.00
-31.00	-85.00	15.00	-134.00	25.00	3.00	3.00
-17.00	-45.00	31.00	-28.00	25.00	69.00	9.00
-11.00	41.00	-24.00	1.00	3.00	72.00	14.00
-3.00	126.00	-69.00	-63.00	-7.00	19.00	-2.00
-3.00	122.00	7.00	15.00	-15.00	-26.00	-7.00
-4.00	63.00	136.00	110.00	-41.00	2.00	-5.00
9.00	22.00	161.00	191.00	-73.00	12.00	15.00
5.00	-59.00	220.00	246.00	-115.00	-15.00	14.00
-25.00	-102.00	147.00	230.00	-91.00	8.00	0.00
-51.00	-119.00	64.00	227.00	-43.00	34.00	-23.00
-47.00	-116.00	183.00	185.00	-34.00	23.00	-8.00
-42.00	-54.00	298.00	183.00	-26.00	5.00	-1.00
-26.00	22.00	182.00	177.00	-20.00	-18.00	-4.00
-9.00	29.00	26.00	104.00	12.00	-30.00	1.00
9.00	8.00	-52.00	15.00	28.00	-4.00	6.00
26.00	-22.00	-139.00	-29.00	25.00	-15.00	1.00
40.00	-48.00	-205.00	-64.00	38.00	-5.00	-11.00
56.00	-55.00	-213.00	-112.00	48.00	3.00	-9.00
45.00	-32.00	-178.00	-132.00	47.00	6.00	-8.00
2.00	15.00	-119.00	-104.00	35.00	8.00	2.00
-30.00	42.00	-42.00	-77.00	15.00	14.00	-9.00
-42.00	76.00	37.00	-79.00	23.00	5.00	-7.00
-39.00	76.00	161.00	-90.00	28.00	-18.00	-5.00
-26.00	61.00	61.00	-70.00	33.00	35.00	-29.00
-7.00	44.00	-200.00	-90.00	57.00	40.00	-33.00
2.00	47.00	-299.00	-106.00	77.00	-2.00	-4.00
15.00	38.00	-267.00	-74.00	95.00	15.00	19.00
28.00	30.00	-83.00	15.00	86.00	-4.00	29.00
29.00	17.00	104.00	56.00	75.00	20.00	32.00
23.00	20.00	241.00	111.00	67.00	20.00	32.00
0.00	31.00	338.00	160.00	42.00	12.00	24.00
-32.00	29.00	143.00	152.00	-6.00	18.00	30.00
-39.00	18.00	75.00	109.00	-55.00	17.00	21.00
-18.00	19.00	26.00	15.00	-76.00	12.00	0.00
-14.00	19.00	2.00	-56.00	-64.00	16.00	3.00
-6.00	12.00	-85.00	-42.00	-65.00	10.00	-6.00
-11.00	8.00	-129.00	-33.00	-61.00	-2.00	-11.00
-16.00	9.00	-71.00	-14.00	-31.00	0.00	3.00
0.00	16.00	-44.00	3.00	2.00	5.00	-8.00
26.00	32.00	-18.00	26.00	31.00	16.00	-52.00
45.00	42.00	-2.00	27.00	67.00	9.00	-41.00
40.00	58.00	-23.00	-15.00	95.00	13.00	-40.00
57.00	79.00	-75.00	-141.00	93.00	20.00	-23.00
90.00	101.00	-172.00	-213.00	68.00	-1.00	-11.00
112.00	111.00	-151.00	-201.00	53.00	-4.00	-19.00
122.00	103.00	-113.00	-208.00	44.00	19.00	-2.00
102.00	67.00	-62.00	-137.00	24.00	17.00	24.00
64.00	33.00	69.00	16.00	17.00	19.00	21.00
54.00	-20.00	214.00	197.00	-11.00	35.00	23.00
26.00	-80.00	213.00	319.00	-44.00	27.00	18.00
-1.00	-106.00	108.00	231.00	-12.00	4.00	12.00
-19.00	-92.00	47.00	132.00	15.00	-13.00	14.00
-38.00	-77.00	17.00	73.00	13.00	4.00	16.00
-50.00	-48.00	-60.00	-14.00	19.00	4.00	21.00
-68.00	-16.00	-145.00	-129.00	20.00	-14.00	13.00
-83.00	3.00	-150.00	-169.00	31.00	4.00	-18.00
-78.00	8.00	-59.00	-175.00	22.00	14.00	-2.00
-59.00	33.00	-8.00	-177.00	11.00	21.00	-11.00
-30.00	54.00	86.00	-149.00	-1.00	18.00	-20.00
-10.00	66.00	204.00	-68.00	-20.00	18.00	-27.00
3.00	65.00	253.00	90.00	-46.00	38.00	-42.00
10.00	91.00	188.00	95.00	-50.00	63.00	-35.00
23.00	110.00	66.00	118.00	-53.00	44.00	-23.00
31.00	68.00	-288.00	75.00	-35.00	-14.00	2.00
34.00	28.00	-459.00	-17.00	-1.00	-66.00	22.00
21.00	-37.00	-294.00	-70.00	31.00	-44.00	21.00
9.00	-74.00	-66.00	-46.00	51.00	-9.00	14.00
-10.00	-96.00	144.00	56.00	53.00	6.00	13.00
-12.00	-94.00	475.00	259.00	32.00	-9.00	-8.00
-15.00	-74.00	576.00	394.00	-2.00	-17.00	16.00
-25.00	-44.00	249.00	387.00	-4.00	-3.00	46.00
-32.00	-21.00	-9.00	183.00	2.00	25.00	61.00
-29.00	1.00	-83.00	46.00	18.00	39.00	61.00
-22.00	10.00	-89.00	20.00	28.00	-39.00	66.00
-22.00	18.00	-19.00	8.00	27.00	-4.00	28.00
-18.00	17.00	55.00	-45.00	-17.00	16.00	-11.00
-14.00	23.00	37.00	-66.00	-47.00	2.00	-54.00
-20.00	13.00	-2.00	-2.00	-50.00	17.00	-45.00
-20.00	11.00	-51.00	29.00	-45.00	14.00	-26.00
-22.00	11.00	-127.00	12.00	-21.00	18.00	-18.00
-23.00	10.00	-157.00	-31.00	2.00	27.00	-8.00
-21.00	14.00	-132.00	-86.00	38.00	34.00	-7.00
-21.00	35.00	-115.00	-223.00	59.00	36.00	-14.00
-18.00	56.00	-119.00	-317.00	71.00	32.00	-8.00
-9.00	61.00	-24.00	-302.00	63.00	21.00	-4.00
-6.00	48.00	59.00	-229.00	63.00	31.00	-16.00
-12.00	39.00	35.00	-112.00	64.00	18.00	-11.00
-23.00	22.00	57.00	67.00	56.00	-55.00	7.00
-18.00	21.00	157.00	265.00	59.00	12.00	15.00
-16.00	32.00	117.00	307.00	35.00	64.00	5.00
-12.00	66.00	63.00	209.00	26.00	84.00	6.00
-6.00	69.00	5.00	59.00	25.00	64.00	-2.00
3.00	54.00	-25.00	-41.00	4.00	-69.00	9.00
8.00	41.00	-18.00	-57.00	-12.00	-6.00	14.00
15.00	15.00	38.00	6.00	-17.00	5.00	9.00
23.00	5.00	63.00	87.00	-4.00	22.00	-20.00
19.00	-2.00	82.00	38.00	-7.00	17.00	-5.00
18.00	14.00	28.00	-34.00	-38.00	-13.00	6.00
3.00	5.00	-95.00	-50.00	-25.00	4.00	-7.00
-20.00	-9.00	-194.00	-53.00	5.00	34.00	-22.00
-20.00	15.00	-247.00	-66.00	-2.00	14.00	-21.00
-1.00	47.00	-171.00	-84.00	-53.00	9.00	-25.00
11.00	13.00	85.00	-59.00	-77.00	-53.00	-10.00
28.00	-2.00	184.00	16.00	-95.00	-52.00	7.00
39.00	-5.00	159.00	42.00	-62.00	9.00	9.00
40.00	-9.00	178.00	64.00	-36.00	-5.00	8.00
62.00	-26.00	171.00	71.00	-23.00	-2.00	9.00
81.00	-2.00	44.00	39.00	-15.00	8.00	4.00
61.00	14.00	-100.00	26.00	8.00	6.00	10.00
34.00	23.00	-112.00	19.00	44.00	21.00	15.00
20.00	15.00	-139.00	-37.00	73.00	10.00	14.00
-1.00	10.00	-111.00	-71.00	107.00	4.00	15.00
-16.00	-9.00	-26.00	-14.00	125.00	-13.00	19.00
-24.00	2.00	49.00	42.00	132.00	-5.00	6.00
-25.00	34.00	67.00	105.00	125.00	43.00	4.00
-23.00	49.00	-27.00	45.00	105.00	39.00	7.00
-12.00	48.00	-75.00	29.00	91.00	34.00	-9.00
3.00	16.00	-63.00	69.00	88.00	2.00	-15.00
17.00	-5.00	-103.00	37.00	95.00	33.00	-19.00
10.00	-25.00	-88.00	-8.00	84.00	28.00	-16.00
-5.00	-41.00	-47.00	5.00	47.00	3.00	-20.00
9.00	-53.00	-35.00	80.00	14.00	2.00	-4.00
11.00	-27.00	-19.00	101.00	-5.00	0.00	7.00
9.00	17.00	6.00	70.00	-35.00	-9.00	9.00
1.00	24.00	108.00	29.00	-42.00	5.00	9.00
-4.00	20.00	160.00	-11.00	-72.00	2.00	-5.00
-3.00	31.00	242.00	23.00	-90.00	9.00	-4.00
-6.00	68.00	218.00	-13.00	-98.00	18.00	3.00
12.00	71.00	53.00	-47.00	-87.00	24.00	27.00
11.00	52.00	3.00	-74.00	-79.00	26.00	28.00
-6.00	42.00	-39.00	-98.00	-62.00	27.00	14.00
-17.00	28.00	-66.00	-132.00	-63.00	30.00	1.00
-22.00	23.00	-74.00	-185.00	-78.00	12.00	4.00
-27.00	57.00	-55.00	-166.00	-53.00	-23.00	7.00
-6.00	54.00	-68.00	-108.00	-1.00	-9.00	-1.00
23.00	37.00	11.00	-67.00	49.00	-16.00	-1.00
52.00	19.00	0.00	-29.00	86.00	-1.00	12.00
71.00	-24.00	-55.00	5.00	124.00	-4.00	10.00
69.00	-54.00	-15.00	-22.00	113.00	-10.00	-1.00
60.00	-72.00	-32.00	-52.00	78.00	11.00	-1.00
51.00	-66.00	-82.00	-59.00	85.00	25.00	-13.00
25.00	-71.00	-32.00	-55.00	87.00	30.00	-8.00
9.00	-38.00	52.00	2.00	61.00	23.00	-34.00
-1.00	7.00	146.00	141.00	35.00	6.00	-37.00
3.00	21.00	118.00	327.00	27.00	-1.00	-3.00
7.00	31.00	118.00	335.00	9.00	10.00	-12.00
8.00	37.00	72.00	244.00	-6.00	35.00	-10.00
17.00	28.00	41.00	197.00	0.00	29.00	3.00
9.00	0.00	22.00	116.00	1.00	14.00	-19.00
4.00	-3.00	63.00	43.00	16.00	-38.00	-39.00
-3.00	49.00	74.00	-9.00	63.00	-22.00	-45.00
-20.00	75.00	-29.00	-45.00	72.00	3.00	-22.00
-27.00	57.00	-103.00	-58.00	32.00	25.00	-16.00
-35.00	19.00	-136.00	-72.00	0.00	-17.00	2.00
-27.00	0.00	-150.00	-70.00	-6.00	22.00	16.00
-27.00	-8.00	-150.00	-104.00	-17.00	18.00	27.00
-28.00	-29.00	-88.00	-64.00	-14.00	15.00	42.00
-26.00	-42.00	-8.00	2.00	-11.00	20.00	46.00
-26.00	-22.00	58.00	3.00	-13.00	11.00	43.00
-17.00	8.00	181.00	-28.00	-20.00	17.00	42.00
-16.00	22.00	98.00	-7.00	-9.00	42.00	35.00
-17.00	27.00	29.00	42.00	-19.00	31.00	38.00
-17.00	25.00	21.00	69.00	-40.00	24.00	40.00
-14.00	43.00	-25.00	-32.00	-27.00	20.00	15.00
-19.00	40.00	-94.00	-62.00	-20.00	-11.00	-1.00
-24.00	65.00	-57.00	-48.00	-5.00	7.00	-27.00
-17.00	68.00	10.00	58.00	2.00	-6.00	-27.00
-8.00	77.00	10.00	20.00	-7.00	1.00	-29.00
-7.00	87.00	31.00	5.00	-5.00	21.00	-44.00
-21.00	62.00	73.00	16.00	-10.00	-9.00	-30.00
-19.00	53.00	23.00	88.00	-46.00	-7.00	-4.00
-19.00	46.00	-26.00	72.00	-54.00	13.00	5.00
-27.00	36.00	-73.00	-62.00	-42.00	15.00	4.00
-36.00	16.00	-85.00	-139.00	-7.00	24.00	1.00
-31.00	11.00	-126.00	-152.00	12.00	36.00	6.00
-20.00	29.00	-17.00	-84.00	52.00	44.00	-4.00
-12.00	21.00	82.00	-18.00	72.00	49.00	2.00
12.00	-1.00	263.00	92.00	48.00	2.00	5.00
30.00	-12.00	317.00	176.00	33.00	-50.00	7.00
35.00	-46.00	133.00	151.00	33.00	-22.00	15.00
41.00	-71.00	7.00	112.00	52.00	8.00	28.00
33.00	-40.00	-61.00	86.00	81.00	10.00	40.00
26.00	13.00	-92.00	89.00	71.00	-56.00	31.00
28.00	36.00	-193.00	13.00	60.00	13.00	16.00
31.00	17.00	-207.00	-55.00	67.00	37.00	6.00
46.00	0.00	-100.00	-78.00	66.00	4.00	4.00
41.00	-3.00	24.00	-77.00	59.00	-12.00	0.00
28.00	-8.00	173.00	-14.00	44.00	-8.00	-4.00
10.00	-36.00	260.00	72.00	35.00	5.00	-24.00
-14.00	-64.00	234.00	128.00	22.00	7.00	-20.00
-40.00	-75.00	214.00	93.00	-4.00	9.00	-21.00
-70.00	-68.00	54.00	44.00	-21.00	24.00	-8.00
-71.00	-39.00	-63.00	26.00	-13.00	28.00	-19.00
-58.00	-32.00	-131.00	21.00	-11.00	0.00	-6.00
-41.00	-22.00	-174.00	-2.00	-27.00	-21.00	-9.00
-20.00	7.00	-131.00	-38.00	-21.00	11.00	-20.00
3.00	50.00	-97.00	-68.00	-6.00	31.00	2.00
41.00	85.00	-86.00	-120.00	-12.00	29.00	16.00
77.00	101.00	-52.00	-136.00	-19.00	23.00	8.00
85.00	105.00	-4.00	-103.00	-12.00	10.00	6.00
81.00	98.00	20.00	-43.00	-15.00	6.00	23.00
56.00	73.00	14.00	-9.00	-32.00	3.00	12.00
44.00	87.00	24.00	22.00	-59.00	-4.00	1.00
23.00	102.00	6.00	17.00	-53.00	0.00	4.00
-4.00	100.00	-17.00	-29.00	-36.00	3.00	7.00
-19.00	74.00	-70.00	-59.00	-6.00	41.00	3.00
-30.00	8.00	-92.00	-73.00	13.00	24.00	4.00
-16.00	-21.00	-51.00	-63.00	35.00	-3.00	13.00
-3.00	-49.00	-33.00	-44.00	56.00	7.00	16.00
8.00	-69.00	-23.00	-39.00	64.00	22.00	17.00
3.00	-77.00	-133.00	-30.00	80.00	7.00	-5.00
2.00	-66.00	-139.00	-6.00	83.00	6.00	-11.00
-3.00	-50.00	-62.00	20.00	76.00	22.00	1.00
-25.00	-46.00	10.00	110.00	93.00	19.00	-12.00
-36.00	-17.00	185.00	218.00	72.00	14.00	0.00
-29.00	1.00	284.00	234.00	1.00	-25.00	1.00
-21.00	16.00	223.00	137.00	-13.00	-40.00	-18.00
-16.00	35.00	97.00	48.00	3.00	-21.00	-13.00
-5.00	39.00	28.00	25.00	12.00	5.00	-21.00
23.00	30.00	-5.00	5.00	20.00	19.00	-24.00
44.00	5.00	0.00	-19.00	25.00	12.00	-21.00
55.00	-10.00	7.00	-43.00	45.00	13.00	-27.00
59.00	-2.00	44.00	-40.00	44.00	13.00	-23.00
56.00	12.00	46.00	-58.00	28.00	14.00	-15.00
45.00	17.00	29.00	-25.00	-2.00	2.00	14.00
33.00	20.00	20.00	25.00	-7.00	21.00	28.00
20.00	26.00	-9.00	37.00	1.00	21.00	24.00
14.00	34.00	-121.00	-3.00	17.00	50.00	8.00
8.00	44.00	-272.00	-109.00	18.00	60.00	-10.00
-18.00	46.00	-269.00	-168.00	9.00	47.00	11.00
-29.00	48.00	-254.00	-149.00	2.00	18.00	20.00
-35.00	52.00	-171.00	-80.00	9.00	-26.00	25.00
-28.00	65.00	13.00	-23.00	13.00	-20.00	23.00
-23.00	93.00	256.00	188.00	-11.00	-1.00	8.00
-29.00	103.00	305.00	289.00	-25.00	3.00	3.00
-35.00	90.00	222.00	184.00	-16.00	19.00	-1.00
-29.00	66.00	76.00	77.00	-4.00	40.00	-6.00
-27.00	10.00	40.00	86.00	4.00	34.00	-5.00
-23.00	-47.00	-34.00	85.00	-1.00	-17.00	8.00
-22.00	-62.00	-54.00	42.00	-2.00	-23.00	15.00
-19.00	-54.00	-12.00	13.00	19.00	31.00	15.00
-9.00	-24.00	74.00	41.00	43.00	52.00	14.00
-9.00	-17.00	93.00	23.00	38.00	40.00	19.00
-10.00	-22.00	-11.00	-100.00	32.00	12.00	7.00
-2.00	-25.00	-120.00	-143.00	27.00	-10.00	6.00
6.00	-9.00	-55.00	-114.00	25.00	-7.00	2.00
10.00	6.00	41.00	-114.00	11.00	9.00	-11.00
-2.00	36.00	101.00	-137.00	-7.00	24.00	-12.00
-8.00	61.00	223.00	24.00	-33.00	3.00	-8.00
1.00	59.00	350.00	204.00	-51.00	-38.00	-21.00
-1.00	48.00	215.00	163.00	-33.00	-26.00	-12.00
-11.00	28.00	-48.00	99.00	-9.00	-3.00	2.00
-17.00	48.00	-88.00	54.00	2.00	6.00	11.00
-17.00	43.00	-37.00	29.00	10.00	15.00	26.00
-14.00	29.00	-51.00	30.00	33.00	53.00	43.00
-17.00	22.00	-64.00	-23.00	50.00	93.00	41.00
-17.00	-3.00	-60.00	-65.00	61.00	51.00	21.00
-11.00	-26.00	-166.00	-93.00	58.00	-34.00	-5.00
-8.00	-34.00	-193.00	-66.00	70.00	-43.00	-24.00
-15.00	-11.00	-169.00	11.00	76.00	-88.00	-33.00
-43.00	1.00	-73.00	26.00	71.00	-17.00	-31.00
-71.00	32.00	108.00	1.00	26.00	32.00	-2.00
-57.00	26.00	301.00	29.00	-27.00	-10.00	4.00
-48.00	8.00	397.00	72.00	-63.00	-10.00	-6.00
-22.00	9.00	266.00	16.00	-91.00	-1.00	2.00
4.00	10.00	112.00	-62.00	-100.00	0.00	17.00
34.00	7.00	-50.00	-110.00	-86.00	-2.00	8.00
69.00	18.00	-137.00	-122.00	-78.00	-3.00	-10.00
105.00	32.00	-251.00	-95.00	-62.00	9.00	2.00
144.00	20.00	-352.00	-26.00	-34.00	13.00	0.00
147.00	-27.00	-262.00	36.00	-5.00	7.00	-18.00
113.00	-63.00	-127.00	49.00	10.00	1.00	-8.00
79.00	-54.00	-82.00	45.00	47.00	12.00	-20.00
48.00	-48.00	-74.00	91.00	90.00	12.00	-32.00
27.00	-46.00	-47.00	127.00	124.00	16.00	-11.00
3.00	-46.00	-2.00	141.00	129.00	22.00	12.00
-15.00	-45.00	25.00	75.00	105.00	20.00	-1.00
-38.00	-17.00	22.00	-66.00	109.00	33.00	-9.00
-53.00	3.00	-22.00	-147.00	83.00	40.00	12.00
-64.00	9.00	-62.00	-204.00	37.00	18.00	50.00
-58.00	37.00	-105.00	-178.00	17.00	36.00	41.00
-46.00	70.00	-87.00	-72.00	9.00	20.00	-2.00
-30.00	67.00	23.00	82.00	15.00	14.00	-7.00
2.00	52.00	128.00	171.00	9.00	14.00	-15.00
10.00	74.00	130.00	157.00	7.00	35.00	-2.00
32.00	80.00	143.00	137.00	-16.00	39.00	10.00
57.00	94.00	44.00	43.00	-27.00	5.00	22.00
55.00	88.00	-41.00	-37.00	-18.00	10.00	16.00
34.00	75.00	-86.00	-90.00	-12.00	-24.00	14.00
8.00	58.00	-31.00	-126.00	-7.00	16.00	16.00
-26.00	40.00	106.00	-60.00	-32.00	20.00	15.00
-46.00	14.00	188.00	50.00	-60.00	-23.00	13.00
-66.00	-20.00	187.00	181.00	-111.00	-18.00	4.00
-74.00	-50.00	151.00	261.00	-137.00	12.00	7.00
-65.00	-58.00	120.00	274.00	-122.00	19.00	4.00
-58.00	-49.00	63.00	142.00	-78.00	-1.00	-5.00
-34.00	-45.00	35.00	48.00	-25.00	-17.00	-19.00
-8.00	-35.00	33.00	0.00	33.00	9.00	-25.00
17.00	-5.00	-5.00	-19.00	94.00	15.00	-30.00
52.00	43.00	-43.00	-55.00	131.00	10.00	-25.00
67.00	53.00	-83.00	-145.00	151.00	4.00	8.00
73.00	46.00	-122.00	-218.00	175.00	9.00	32.00
83.00	40.00	-139.00	-232.00	183.00	19.00	8.00
76.00	47.00	-150.00	-198.00	185.00	28.00	-13.00
46.00	58.00	-159.00	-138.00	181.00	37.00	-7.00
24.00	88.00	-281.00	-73.00	148.00	35.00	12.00
9.00	80.00	-205.00	31.00	91.00	14.00	28.00
1.00	31.00	-91.00	41.00	28.00	6.00	27.00
-5.00	-25.00	-5.00	-23.00	2.00	44.00	29.00
-16.00	-55.00	239.00	-19.00	-34.00	-19.00	14.00
-10.00	-59.00	497.00	104.00	-62.00	-21.00	-10.00
-22.00	-57.00	436.00	130.00	-66.00	-7.00	-5.00
-39.00	-55.00	187.00	153.00	-53.00	1.00	2.00
-67.00	-24.00	94.00	160.00	-40.00	19.00	-20.00
-77.00	0.00	55.00	121.00	-39.00	3.00	-18.00
-65.00	3.00	-10.00	69.00	-55.00	5.00	-1.00
-43.00	1.00	-84.00	-6.00	-69.00	12.00	-9.00
-24.00	15.00	-122.00	-68.00	-63.00	7.00	-16.00
-19.00	39.00	-204.00	-57.00	-48.00	11.00	-9.00
-7.00	72.00	-222.00	-116.00	-22.00	19.00	-4.00
18.00	95.00	-88.00	-93.00	-16.00	13.00	13.00
38.00	70.00	60.00	36.00	-18.00	-8.00	15.00
58.00	36.00	141.00	174.00	-10.00	-7.00	11.00
41.00	32.00	246.00	207.00	1.00	-7.00	7.00
21.00	23.00	167.00	114.00	17.00	-3.00	12.00
25.00	21.00	49.00	8.00	22.00	-2.00	8.00
35.00	2.00	-66.00	-105.00	33.00	2.00	7.00
47.00	-5.00	-226.00	-180.00	47.00	15.00	24.00
28.00	1.00	-222.00	-205.00	41.00	22.00	31.00
11.00	9.00	-159.00	-183.00	25.00	31.00	17.00
-6.00	13.00	-133.00	-119.00	18.00	29.00	-3.00
-8.00	42.00	27.00	13.00	2.00	12.00	-10.00
0.00	79.00	223.00	178.00	-31.00	-3.00	-16.00
1.00	109.00	140.00	248.00	-68.00	3.00	-28.00
-7.00	88.00	25.00	212.00	-77.00	14.00	-20.00
-11.00	63.00	90.00	149.00	-88.00	11.00	-31.00
-6.00	94.00	75.00	54.00	-75.00	16.00	-29.00
-4.00	139.00	-22.00	-60.00	-43.00	20.00	-41.00
-1.00	116.00	26.00	-122.00	-21.00	33.00	-37.00
-8.00	29.00	77.00	-111.00	8.00	14.00	-21.00
-17.00	-52.00	84.00	-84.00	36.00	-11.00	-11.00
-22.00	-118.00	64.00	-5.00	46.00	-36.00	2.00
-24.00	-159.00	50.00	116.00	52.00	-8.00	19.00
-23.00	-183.00	8.00	176.00	63.00	12.00	23.00
-26.00	-152.00	-35.00	106.00	109.00	31.00	28.00
-32.00	-87.00	-58.00	58.00	129.00	21.00	28.00
-43.00	-37.00	-62.00	-17.00	112.00	-8.00	31.00
-43.00	-14.00	-130.00	-74.00	101.00	21.00	36.00
-28.00	15.00	-123.00	-79.00	98.00	34.00	30.00
-15.00	26.00	-96.00	-48.00	80.00	11.00	32.00
-1.00	19.00	-120.00	-69.00	35.00	-6.00	3.00
5.00	10.00	-80.00	-35.00	6.00	-1.00	-20.00
25.00	16.00	-6.00	-55.00	-4.00	6.00	-25.00
33.00	62.00	41.00	-8.00	-7.00	11.00	-11.00
35.00	84.00	29.00	44.00	-4.00	20.00	-13.00
38.00	93.00	-9.00	103.00	-13.00	8.00	-15.00
44.00	53.00	-39.00	126.00	-11.00	35.00	1.00
40.00	1.00	-54.00	109.00	5.00	22.00	-1.00
16.00	-38.00	-9.00	76.00	-8.00	-22.00	-2.00
-1.00	-63.00	-2.00	-13.00	-20.00	15.00	13.00
-9.00	-59.00	85.00	-45.00	-39.00	51.00	33.00
-19.00	-44.00	46.00	-26.00	-50.00	44.00	31.00
-19.00	-13.00	24.00	-30.00	-51.00	35.00	41.00
-1.00	3.00	10.00	-21.00	-47.00	7.00	34.00
18.00	9.00	82.00	55.00	-57.00	-10.00	15.00
33.00	17.00	8.00	55.00	-49.00	-39.00	5.00
34.00	31.00	15.00	79.00	-21.00	-8.00	3.00
35.00	49.00	11.00	89.00	2.00	5.00	-10.00
37.00	82.00	-25.00	-14.00	40.00	27.00	-18.00
34.00	100.00	7.00	-153.00	62.00	17.00	-20.00
24.00	83.00	70.00	-198.00	85.00	7.00	-27.00
8.00	40.00	25.00	-178.00	95.00	-9.00	-32.00
-6.00	22.00	1.00	-153.00	110.00	-22.00	-18.00
-24.00	15.00	29.00	-124.00	117.00	-3.00	-3.00
-24.00	9.00	80.00	-49.00	98.00	5.00	4.00
-12.00	-4.00	132.00	95.00	68.00	8.00	-5.00
-5.00	7.00	127.00	149.00	42.00	7.00	1.00
2.00	4.00	92.00	89.00	15.00	38.00	12.00
14.00	6.00	29.00	106.00	-5.00	43.00	20.00
23.00	3.00	-19.00	128.00	-4.00	37.00	10.00
13.00	-4.00	-18.00	74.00	-11.00	-33.00	-4.00
27.00	-10.00	0.00	56.00	-8.00	-59.00	-5.00
27.00	-11.00	-69.00	93.00	-24.00	-7.00	-3.00
-5.00	-6.00	-138.00	67.00	-33.00	38.00	2.00
-32.00	32.00	-141.00	42.00	-25.00	40.00	-3.00
-36.00	52.00	-153.00	11.00	-16.00	17.00	-15.00
-27.00	57.00	-115.00	-118.00	-8.00	-14.00	-18.00
-26.00	68.00	14.00	-211.00	-7.00	3.00	-14.00
-28.00	67.00	36.00	-233.00	-11.00	38.00	4.00
-47.00	44.00	-14.00	-216.00	0.00	53.00	1.00
-55.00	27.00	51.00	-125.00	10.00	51.00	-11.00
-35.00	23.00	51.00	11.00	5.00	33.00	-7.00
-2.00	20.00	92.00	170.00	-5.00	-17.00	3.00
20.00	22.00	129.00	231.00	-37.00	10.00	22.00
34.00	10.00	168.00	260.00	-57.00	-41.00	2.00
34.00	5.00	35.00	215.00	-59.00	-51.00	-1.00
47.00	8.00	-66.00	166.00	-35.00	-11.00	11.00
60.00	16.00	-61.00	58.00	-7.00	-7.00	14.00
64.00	7.00	-10.00	-41.00	22.00	-10.00	10.00
59.00	-14.00	-10.00	-171.00	48.00	19.00	-5.00
34.00	-8.00	-29.00	-221.00	48.00	25.00	-27.00
19.00	25.00	-59.00	-236.00	57.00	28.00	-25.00
-7.00	47.00	-101.00	-187.00	65.00	28.00	-8.00
-27.00	22.00	-72.00	-43.00	59.00	24.00	-7.00
-43.00	26.00	-12.00	102.00	19.00	17.00	5.00
-50.00	41.00	19.00	249.00	-15.00	22.00	6.00
-44.00	43.00	65.00	248.00	-51.00	11.00	14.00
-33.00	34.00	136.00	180.00	-81.00	-9.00	10.00
-18.00	45.00	57.00	128.00	-54.00	-6.00	20.00
-7.00	66.00	5.00	70.00	-6.00	6.00	30.00
-2.00	47.00	7.00	53.00	28.00	1.00	29.00
0.00	1.00	1.00	40.00	61.00	-4.00	-7.00
5.00	-45.00	-115.00	28.00	85.00	-2.00	8.00
9.00	-72.00	-105.00	-42.00	104.00	-1.00	12.00
11.00	-76.00	-39.00	-61.00	118.00	1.00	2.00
1.00	-67.00	-23.00	-55.00	129.00	9.00	-6.00
-19.00	-16.00	53.00	-70.00	115.00	24.00	-2.00
-24.00	31.00	183.00	-139.00	50.00	14.00	-5.00
-24.00	34.00	20.00	-279.00	22.00	31.00	23.00
-15.00	32.00	-206.00	-332.00	12.00	55.00	11.00
-13.00	6.00	-266.00	-304.00	-21.00	32.00	-21.00
-10.00	22.00	-183.00	-221.00	-38.00	20.00	-39.00
-12.00	51.00	29.00	7.00	-33.00	-5.00	-21.00
-5.00	21.00	300.00	378.00	-40.00	-20.00	-10.00
3.00	11.00	329.00	479.00	-38.00	-19.00	-6.00
15.00	-2.00	114.00	388.00	-14.00	-15.00	-7.00
14.00	-29.00	-2.00	244.00	11.00	-6.00	-26.00
7.00	-37.00	4.00	149.00	16.00	-1.00	-30.00
3.00	-45.00	0.00	59.00	15.00	12.00	-30.00
5.00	-57.00	13.00	26.00	10.00	15.00	-27.00
12.00	-58.00	42.00	27.00	0.00	20.00	-27.00
11.00	-39.00	72.00	10.00	-15.00	18.00	-12.00
2.00	-18.00	-12.00	-60.00	-25.00	24.00	12.00
-2.00	12.00	-44.00	-146.00	-11.00	32.00	26.00
2.00	33.00	-33.00	-191.00	14.00	40.00	43.00
16.00	62.00	-42.00	-171.00	26.00	33.00	38.00
4.00	79.00	-31.00	-108.00	26.00	29.00	51.00
-4.00	71.00	9.00	-39.00	11.00	34.00	58.00
2.00	56.00	74.00	41.00	2.00	37.00	55.00
24.00	46.00	93.00	105.00	9.00	31.00	40.00
47.00	27.00	-3.00	76.00	9.00	16.00	23.00
40.00	42.00	-133.00	14.00	13.00	-2.00	18.00
30.00	56.00	-119.00	-40.00	22.00	9.00	14.00
25.00	47.00	-77.00	-105.00	15.00	19.00	21.00
15.00	50.00	-77.00	-130.00	13.00	28.00	14.00
22.00	75.00	91.00	-87.00	23.00	14.00	-12.00
27.00	70.00	123.00	-75.00	35.00	-48.00	-30.00
15.00	62.00	-98.00	-186.00	67.00	-44.00	-47.00
12.00	30.00	-144.00	-248.00	83.00	-9.00	-38.00
24.00	-11.00	-67.00	-130.00	84.00	2.00	-23.00
16.00	-29.00	-18.00	-44.00	87.00	18.00	-16.00
-9.00	-39.00	55.00	38.00	71.00	18.00	-8.00
-33.00	-43.00	243.00	160.00	7.00	-49.00	0.00
-47.00	-36.00	266.00	332.00	-29.00	-30.00	-18.00
-48.00	-28.00	128.00	416.00	-66.00	-33.00	-39.00
-47.00	-28.00	29.00	337.00	-82.00	-17.00	-44.00
-36.00	-9.00	-17.00	202.00	-53.00	14.00	-39.00
-26.00	8.00	-55.00	72.00	-20.00	21.00	-30.00
-16.00	19.00	-78.00	1.00	-2.00	20.00	-7.00
1.00	73.00	-57.00	-13.00	1.00	18.00	6.00
19.00	93.00	-54.00	13.00	-15.00	14.00	9.00
26.00	100.00	-46.00	-10.00	-14.00	19.00	15.00
21.00	81.00	-80.00	-50.00	-8.00	-8.00	19.00
14.00	48.00	-147.00	-80.00	-12.00	-8.00	33.00
-5.00	-3.00	-116.00	-100.00	2.00	-6.00	54.00
-22.00	-38.00	19.00	-54.00	9.00	22.00	56.00
-22.00	-41.00	174.00	62.00	-19.00	27.00	27.00
-14.00	-46.00	203.00	127.00	-37.00	18.00	4.00
-8.00	-42.00	223.00	103.00	-39.00	5.00	-7.00
0.00	-45.00	81.00	51.00	-10.00	23.00	-9.00
6.00	-30.00	-61.00	-87.00	21.00	15.00	3.00
12.00	11.00	-63.00	-151.00	54.00	3.00	8.00
13.00	28.00	-109.00	-166.00	109.00	23.00	-7.00
29.00	39.00	-17.00	-87.00	120.00	30.00	-24.00
35.00	22.00	18.00	44.00	103.00	15.00	-14.00
39.00	4.00	10.00	93.00	85.00	31.00	-15.00
37.00	-3.00	-11.00	66.00	61.00	14.00	-4.00
20.00	8.00	60.00	60.00	49.00	19.00	0.00
4.00	15.00	35.00	-4.00	33.00	20.00	-4.00
-1.00	39.00	-104.00	-135.00	33.00	32.00	-1.00
-5.00	74.00	-218.00	-197.00	40.00	26.00	4.00
-8.00	59.00	-254.00	-121.00	18.00	5.00	9.00
-15.00	40.00	-156.00	-3.00	-7.00	31.00	8.00
-18.00	39.00	21.00	58.00	-34.00	-11.00	17.00
-8.00	27.00	129.00	125.00	-40.00	-11.00	18.00
-9.00	11.00	188.00	149.00	-59.00	-42.00	20.00
-13.00	0.00	351.00	78.00	-60.00	-17.00	-22.00
-22.00	-10.00	290.00	30.00	-61.00	5.00	-12.00
-32.00	6.00	61.00	3.00	-50.00	18.00	-7.00
-34.00	26.00	10.00	-14.00	-30.00	23.00	-4.00
-34.00	40.00	-22.00	30.00	-40.00	18.00	-1.00
-23.00	25.00	-120.00	87.00	-28.00	22.00	-20.00
-11.00	30.00	-140.00	61.00	-3.00	3.00	-34.00
-10.00	13.00	-108.00	3.00	13.00	-28.00	-28.00
-19.00	-5.00	-126.00	-49.00	47.00	-9.00	-36.00
-35.00	-17.00	-119.00	-70.00	80.00	-4.00	-23.00
-35.00	-25.00	-65.00	-29.00	83.00	19.00	9.00
-35.00	-21.00	-54.00	15.00	61.00	33.00	25.00
-24.00	-6.00	-8.00	29.00	26.00	46.00	18.00
0.00	-12.00	188.00	42.00	25.00	47.00	4.00
31.00	-23.00	211.00	19.00	8.00	27.00	-1.00
45.00	-26.00	167.00	-8.00	-17.00	16.00	5.00
56.00	-22.00	158.00	5.00	-1.00	-22.00	17.00
74.00	-2.00	85.00	27.00	33.00	-55.00	13.00
82.00	3.00	-36.00	52.00	58.00	-5.00	18.00
82.00	37.00	-124.00	46.00	71.00	1.00	11.00
68.00	68.00	-86.00	-9.00	64.00	13.00	8.00
49.00	68.00	-42.00	-65.00	47.00	10.00	1.00
35.00	56.00	-41.00	-100.00	25.00	7.00	-10.00
28.00	42.00	-86.00	-127.00	22.00	11.00	-8.00
24.00	31.00	-142.00	-143.00	4.00	0.00	10.00
18.00	16.00	-128.00	-125.00	-22.00	21.00	22.00
-3.00	1.00	-41.00	-78.00	-55.00	28.00	15.00
-23.00	-6.00	62.00	-91.00	-80.00	17.00	-14.00
-25.00	18.00	190.00	-30.00	-86.00	1.00	-11.00
-20.00	31.00	215.00	78.00	-71.00	9.00	-2.00
-14.00	18.00	79.00	107.00	-25.00	10.00	9.00
-7.00	1.00	-12.00	62.00	33.00	17.00	13.00
-5.00	-3.00	-49.00	91.00	75.00	21.00	10.00
-1.00	-12.00	4.00	146.00	89.00	-12.00	11.00
1.00	-30.00	-59.00	125.00	91.00	-7.00	-6.00
-1.00	-34.00	-131.00	47.00	112.00	5.00	-15.00
-5.00	21.00	-134.00	23.00	116.00	-2.00	3.00
-12.00	68.00	-245.00	36.00	124.00	-11.00	-5.00
-28.00	75.00	-173.00	23.00	109.00	12.00	4.00
-26.00	82.00	-31.00	22.00	49.00	23.00	16.00
-26.00	87.00	82.00	44.00	25.00	13.00	11.00
-27.00	48.00	179.00	25.00	5.00	14.00	4.00
-29.00	19.00	251.00	25.00	-8.00	31.00	-21.00
-25.00	-7.00	186.00	39.00	-10.00	33.00	-27.00
-14.00	-14.00	119.00	-18.00	-19.00	-11.00	-10.00
-8.00	-5.00	112.00	-46.00	-45.00	-7.00	10.00
-7.00	20.00	36.00	-17.00	-65.00	7.00	32.00
-8.00	44.00	-5.00	15.00	-69.00	8.00	51.00
-26.00	39.00	-8.00	46.00	-71.00	12.00	33.00
-41.00	30.00	-4.00	40.00	-64.00	20.00	-6.00
-38.00	18.00	-56.00	25.00	-33.00	51.00	-12.00
-32.00	-14.00	-99.00	18.00	-22.00	30.00	0.00
-26.00	-30.00	-131.00	-19.00	2.00	35.00	-23.00
-23.00	-11.00	-177.00	-117.00	23.00	34.00	-26.00
-8.00	-9.00	-271.00	-173.00	18.00	16.00	-37.00
0.00	-17.00	-212.00	-167.00	-27.00	-34.00	-21.00
30.00	-17.00	-29.00	-102.00	-36.00	-3.00	-3.00
54.00	-27.00	120.00	-30.00	-31.00	12.00	8.00
69.00	-27.00	86.00	-31.00	-23.00	7.00	15.00
63.00	-24.00	270.00	41.00	-37.00	-14.00	24.00
56.00	-30.00	326.00	107.00	-30.00	-16.00	9.00
58.00	-16.00	214.00	160.00	19.00	-2.00	-8.00
25.00	80.00	94.00	79.00	63.00	6.00	-3.00
8.00	243.00	35.00	-40.00	57.00	10.00	-14.00
-1.00	252.00	99.00	-57.00	69.00	33.00	-32.00
-21.00	185.00	44.00	-103.00	108.00	36.00	-23.00
-20.00	104.00	24.00	-96.00	137.00	24.00	-23.00
-24.00	11.00	-1.00	-61.00	134.00	8.00	-19.00
-17.00	-88.00	111.00	132.00	82.00	-9.00	-10.00
-15.00	-153.00	75.00	356.00	18.00	-13.00	-14.00
-18.00	-184.00	-52.00	455.00	-11.00	-22.00	1.00
-8.00	-160.00	-83.00	346.00	-22.00	-33.00	7.00
5.00	-129.00	-4.00	258.00	-3.00	7.00	6.00
11.00	-97.00	-17.00	169.00	32.00	32.00	7.00
6.00	-57.00	-75.00	67.00	54.00	30.00	8.00
-1.00	-28.00	-89.00	-12.00	49.00	25.00	13.00
3.00	4.00	-150.00	-93.00	37.00	24.00	10.00
10.00	23.00	-220.00	-150.00	24.00	7.00	6.00
24.00	38.00	-159.00	-199.00	18.00	8.00	-6.00
40.00	50.00	-43.00	-261.00	2.00	5.00	0.00
57.00	60.00	70.00	-214.00	-10.00	8.00	-9.00
58.00	52.00	148.00	-143.00	1.00	3.00	-28.00
38.00	34.00	254.00	-13.00	0.00	-2.00	-24.00
27.00	20.00	127.00	90.00	-11.00	12.00	4.00
7.00	38.00	-80.00	-7.00	-6.00	4.00	22.00
-4.00	32.00	-180.00	-41.00	-10.00	-8.00	18.00
-6.00	39.00	-227.00	-20.00	8.00	18.00	27.00
-7.00	64.00	-190.00	-32.00	-9.00	25.00	24.00
2.00	69.00	-70.00	-71.00	-30.00	7.00	21.00
3.00	52.00	97.00	-80.00	-40.00	-1.00	29.00
13.00	50.00	228.00	-18.00	-42.00	0.00	33.00
13.00	58.00	170.00	59.00	-31.00	4.00	30.00
10.00	66.00	39.00	128.00	-6.00	19.00	12.00
-7.00	38.00	-16.00	125.00	-5.00	18.00	-8.00
-21.00	-3.00	-47.00	130.00	-2.00	19.00	6.00
-27.00	-15.00	-54.00	69.00	6.00	15.00	-5.00
-27.00	-17.00	-62.00	-48.00	19.00	13.00	-23.00
-26.00	-29.00	-52.00	-148.00	39.00	56.00	-8.00
-25.00	-46.00	-49.00	-183.00	59.00	53.00	4.00
-27.00	-31.00	-35.00	-184.00	63.00	33.00	2.00
-31.00	-20.00	18.00	-145.00	47.00	-34.00	1.00
-22.00	21.00	66.00	-13.00	38.00	-5.00	1.00
-19.00	64.00	34.00	69.00	22.00	-49.00	9.00
-9.00	100.00	-41.00	119.00	24.00	8.00	-2.00
-12.00	107.00	-61.00	137.00	15.00	38.00	-23.00
-17.00	91.00	-37.00	123.00	0.00	36.00	-48.00
-21.00	60.00	8.00	85.00	15.00	50.00	-33.00
-21.00	32.00	-26.00	14.00	17.00	34.00	-18.00
-17.00	13.00	-54.00	-55.00	-2.00	-29.00	-20.00
-31.00	-16.00	-45.00	-73.00	-21.00	-23.00	-18.00
-49.00	-35.00	-44.00	-27.00	-19.00	-2.00	-13.00
-45.00	-54.00	-4.00	15.00	-11.00	-2.00	-15.00
-35.00	-51.00	128.00	32.00	-11.00	-9.00	-13.00
-22.00	-39.00	218.00	75.00	-14.00	-15.00	12.00
-10.00	-1.00	194.00	91.00	-22.00	-11.00	35.00
16.00	32.00	130.00	69.00	-27.00	4.00	45.00
24.00	62.00	70.00	25.00	-37.00	-1.00	24.00
42.00	64.00	94.00	-8.00	-20.00	17.00	10.00
74.00	38.00	11.00	-102.00	-15.00	25.00	14.00
78.00	21.00	-86.00	-265.00	-14.00	31.00	17.00
71.00	-1.00	-293.00	-452.00	7.00	32.00	13.00
57.00	-34.00	-284.00	-398.00	13.00	29.00	4.00
52.00	-52.00	-275.00	-249.00	22.00	27.00	2.00
43.00	-47.00	-102.00	-52.00	49.00	23.00	6.00
39.00	-18.00	244.00	171.00	55.00	-8.00	10.00
32.00	-17.00	508.00	508.00	17.00	-28.00	6.00
17.00	-31.00	423.00	702.00	-8.00	-33.00	2.00
-17.00	-21.00	27.00	511.00	41.00	-4.00	15.00
-46.00	3.00	-59.00	286.00	75.00	13.00	12.00
-71.00	15.00	6.00	211.00	83.00	9.00	-1.00
-72.00	19.00	29.00	90.00	81.00	-18.00	1.00
-62.00	38.00	43.00	11.00	46.00	7.00	-4.00
-50.00	48.00	63.00	-23.00	34.00	44.00	-6.00
-29.00	52.00	54.00	-35.00	41.00	47.00	-3.00
-2.00	56.00	22.00	-57.00	33.00	24.00	10.00
33.00	49.00	2.00	-68.00	23.00	-14.00	-5.00
61.00	39.00	-28.00	-66.00	5.00	-11.00	-14.00
75.00	30.00	-78.00	-98.00	-45.00	12.00	2.00
84.00	34.00	-59.00	-110.00	-58.00	24.00	6.00
78.00	41.00	-90.00	-93.00	-58.00	13.00	15.00
64.00	37.00	-132.00	-77.00	-42.00	9.00	-6.00
46.00	35.00	-158.00	-68.00	-13.00	19.00	-29.00
37.00	50.00	-182.00	-78.00	15.00	35.00	-15.00
10.00	38.00	-182.00	-158.00	41.00	37.00	-5.00
-14.00	16.00	-124.00	-235.00	51.00	31.00	-16.00
-36.00	9.00	8.00	-230.00	50.00	5.00	-18.00
-44.00	-13.00	81.00	-158.00	56.00	10.00	-20.00
-44.00	-7.00	81.00	-24.00	65.00	15.00	-11.00
-39.00	10.00	45.00	67.00	75.00	6.00	-15.00
-41.00	18.00	58.00	103.00	79.00	-7.00	-5.00
-30.00	10.00	86.00	168.00	53.00	-1.00	-6.00
-12.00	19.00	-16.00	142.00	15.00	-26.00	4.00
-11.00	50.00	-145.00	-10.00	3.00	-16.00	-1.00
-11.00	57.00	-220.00	-41.00	-7.00	6.00	2.00
-9.00	79.00	-181.00	-26.00	-19.00	23.00	18.00
-3.00	111.00	-135.00	-34.00	14.00	23.00	31.00
2.00	90.00	50.00	-16.00	34.00	9.00	21.00
6.00	30.00	289.00	69.00	17.00	-10.00	18.00
-4.00	-28.00	337.00	155.00	1.00	-6.00	8.00
-26.00	-56.00	255.00	203.00	-6.00	0.00	-5.00
-56.00	-52.00	142.00	205.00	-25.00	-5.00	1.00
-74.00	-41.00	17.00	203.00	-45.00	-2.00	-3.00
-63.00	-32.00	-80.00	153.00	-34.00	19.00	-10.00
-45.00	-23.00	-153.00	9.00	-20.00	45.00	-8.00
-32.00	-21.00	-56.00	-54.00	-4.00	36.00	-5.00
-19.00	-33.00	44.00	-68.00	9.00	33.00	14.00
11.00	-48.00	40.00	-100.00	8.00	19.00	19.00
43.00	-72.00	47.00	-99.00	-4.00	-9.00	-5.00
59.00	-80.00	5.00	-23.00	-12.00	-37.00	-5.00
60.00	-36.00	-11.00	-51.00	1.00	17.00	6.00
50.00	9.00	5.00	-58.00	17.00	21.00	11.00
43.00	52.00	138.00	-87.00	20.00	23.00	8.00
39.00	79.00	268.00	-118.00	13.00	41.00	-5.00
24.00	85.00	285.00	1.00	4.00	17.00	-4.00
16.00	83.00	101.00	82.00	8.00	30.00	-3.00
9.00	81.00	-53.00	111.00	8.00	-16.00	2.00
-2.00	54.00	-132.00	109.00	6.00	13.00	-10.00
1.00	47.00	-48.00	158.00	-7.00	0.00	-23.00
2.00	-2.00	-17.00	183.00	-24.00	-23.00	-14.00
24.00	-15.00	-52.00	137.00	-39.00	5.00	-12.00
24.00	4.00	-27.00	44.00	-37.00	5.00	-14.00
19.00	25.00	-126.00	-75.00	-22.00	12.00	-13.00
18.00	11.00	-103.00	-108.00	-4.00	13.00	-7.00
21.00	-21.00	-31.00	-79.00	3.00	13.00	4.00
14.00	-87.00	1.00	-41.00	6.00	8.00	6.00
19.00	-87.00	-15.00	-26.00	18.00	6.00	13.00
11.00	-80.00	-15.00	23.00	23.00	-10.00	12.00
5.00	-54.00	-84.00	17.00	33.00	2.00	18.00
1.00	-4.00	-42.00	44.00	46.00	13.00	20.00
-4.00	26.00	28.00	61.00	43.00	13.00	26.00
-11.00	23.00	41.00	51.00	34.00	-3.00	27.00
-11.00	20.00	-12.00	32.00	36.00	-4.00	14.00
-3.00	21.00	-28.00	1.00	34.00	32.00	17.00
-10.00	34.00	-41.00	-57.00	19.00	16.00	27.00
-13.00	44.00	-47.00	-79.00	-5.00	-27.00	22.00
-18.00	57.00	-37.00	-95.00	-17.00	-4.00	11.00
-28.00	60.00	-38.00	-141.00	-29.00	26.00	11.00
-50.00	57.00	16.00	-160.00	-52.00	31.00	5.00
-79.00	36.00	33.00	-193.00	-56.00	18.00	4.00
-81.00	17.00	31.00	-232.00	-38.00	15.00	6.00
-65.00	28.00	-49.00	-314.00	-6.00	32.00	-8.00
-42.00	76.00	-249.00	-319.00	46.00	30.00	-10.00
-22.00	104.00	-354.00	-190.00	86.00	50.00	2.00
6.00	72.00	-322.00	-76.00	124.00	42.00	-4.00
45.00	29.00	-190.00	-2.00	134.00	22.00	-10.00
57.00	-2.00	63.00	252.00	121.00	-9.00	-11.00
70.00	-13.00	421.00	519.00	80.00	-20.00	-15.00
86.00	-34.00	578.00	616.00	59.00	-16.00	-15.00
70.00	-30.00	392.00	478.00	64.00	-2.00	1.00
38.00	-22.00	225.00	292.00	55.00	-21.00	1.00
25.00	-7.00	97.00	171.00	37.00	-55.00	5.00
7.00	-6.00	7.00	126.00	1.00	-9.00	8.00
1.00	-12.00	-22.00	71.00	-53.00	14.00	4.00
-3.00	13.00	-27.00	26.00	-81.00	20.00	-38.00
-4.00	40.00	-14.00	17.00	-110.00	17.00	-43.00
-5.00	49.00	-12.00	-28.00	-112.00	26.00	-5.00
-6.00	54.00	-30.00	-99.00	-91.00	-7.00	4.00
0.00	73.00	-57.00	-164.00	-62.00	-20.00	16.00
6.00	90.00	-40.00	-277.00	-9.00	35.00	6.00
13.00	69.00	-70.00	-330.00	18.00	28.00	18.00
-5.00	34.00	-78.00	-248.00	52.00	22.00	17.00
-20.00	13.00	-40.00	-93.00	84.00	22.00	4.00
-15.00	-21.00	28.00	64.00	127.00	45.00	-2.00
-1.00	-37.00	40.00	180.00	151.00	36.00	-3.00
24.00	-35.00	107.00	179.00	161.00	15.00	-7.00
26.00	-24.00	127.00	153.00	150.00	-4.00	-13.00
28.00	-3.00	101.00	123.00	139.00	-7.00	-12.00
25.00	28.00	77.00	91.00	109.00	9.00	-1.00
18.00	47.00	-69.00	-11.00	71.00	17.00	9.00
-5.00	38.00	-288.00	-128.00	36.00	18.00	0.00
-11.00	20.00	-334.00	-172.00	8.00	9.00	-3.00
-13.00	-22.00	-236.00	-123.00	-30.00	8.00	10.00
-11.00	-43.00	-40.00	-91.00	-37.00	-1.00	19.00
-19.00	-38.00	190.00	-8.00	-35.00	5.00	9.00
-19.00	-37.00	403.00	168.00	-85.00	-13.00	-29.00
-8.00	-31.00	268.00	182.00	-125.00	-16.00	-16.00
6.00	-20.00	20.00	134.00	-105.00	4.00	-2.00
19.00	-6.00	-62.00	46.00	-71.00	4.00	-1.00
13.00	9.00	-82.00	-16.00	-52.00	-2.00	-2.00
8.00	18.00	-105.00	-67.00	-27.00	6.00	5.00
11.00	24.00	-98.00	-124.00	-8.00	22.00	6.00
16.00	56.00	-114.00	-166.00	-2.00	12.00	10.00
18.00	82.00	-99.00	-188.00	-2.00	7.00	11.00
12.00	99.00	-83.00	-182.00	12.00	1.00	13.00
-2.00	70.00	-77.00	-115.00	46.00	24.00	16.00
-20.00	23.00	-35.00	-24.00	46.00	23.00	14.00
-16.00	-11.00	-60.00	32.00	12.00	7.00	7.00
-15.00	-31.00	-85.00	40.00	1.00	-8.00	-2.00
-13.00	-16.00	-45.00	19.00	9.00	21.00	16.00
-9.00	-12.00	20.00	-37.00	5.00	20.00	-1.00
-12.00	11.00	32.00	-39.00	-2.00	11.00	-20.00
-3.00	45.00	67.00	68.00	11.00	22.00	-21.00
-1.00	82.00	131.00	169.00	5.00	1.00	-8.00
-3.00	65.00	143.00	194.00	-28.00	2.00	-1.00
-2.00	30.00	186.00	146.00	-60.00	19.00	-14.00
-5.00	7.00	283.00	69.00	-78.00	14.00	-11.00
0.00	13.00	224.00	7.00	-88.00	-58.00	-7.00
-14.00	4.00	115.00	-54.00	-64.00	-18.00	-12.00
-27.00	-29.00	2.00	-37.00	-49.00	43.00	-4.00
-31.00	-47.00	-92.00	10.00	-10.00	37.00	-2.00
-38.00	-33.00	-100.00	65.00	26.00	23.00	20.00
-28.00	15.00	9.00	118.00	49.00	10.00	15.00
-20.00	45.00	48.00	188.00	66.00	-29.00	16.00
-17.00	61.00	-40.00	187.00	96.00	-1.00	27.00
-16.00	70.00	-29.00	187.00	101.00	15.00	36.00
-17.00	53.00	-3.00	67.00	79.00	21.00	40.00
-14.00	40.00	-9.00	-48.00	60.00	44.00	36.00
-5.00	10.00	-13.00	-88.00	60.00	44.00	30.00
8.00	-21.00	-31.00	-94.00	44.00	32.00	37.00
15.00	-40.00	-62.00	-77.00	42.00	22.00	33.00
-1.00	-41.00	-102.00	-48.00	37.00	13.00	25.00
6.00	-27.00	-131.00	-43.00	39.00	9.00	4.00
7.00	0.00	-98.00	-76.00	33.00	0.00	-9.00
1.00	1.00	38.00	-66.00	24.00	-4.00	1.00
13.00	-14.00	127.00	-99.00	0.00	-1.00	10.00
14.00	-1.00	71.00	-109.00	11.00	0.00	0.00
27.00	9.00	33.00	-40.00	36.00	11.00	-2.00
43.00	5.00	1.00	45.00	50.00	3.00	-15.00
60.00	21.00	-106.00	44.00	52.00	6.00	-31.00
83.00	34.00	-122.00	75.00	48.00	9.00	-23.00
76.00	36.00	-41.00	111.00	40.00	-6.00	-16.00
62.00	42.00	103.00	107.00	8.00	-46.00	-15.00
57.00	42.00	117.00	69.00	-5.00	-14.00	-14.00
50.00	41.00	35.00	15.00	3.00	-11.00	-6.00
37.00	30.00	-44.00	-29.00	5.00	-10.00	-15.00
22.00	20.00	-63.00	-79.00	30.00	5.00	-26.00
8.00	22.00	-52.00	-84.00	39.00	23.00	-18.00
-12.00	17.00	-60.00	-44.00	18.00	54.00	-1.00
-26.00	2.00	-14.00	28.00	1.00	78.00	11.00
-44.00	2.00	53.00	81.00	-6.00	61.00	7.00
-52.00	31.00	58.00	132.00	-21.00	61.00	3.00
-55.00	48.00	-10.00	107.00	-39.00	24.00	26.00
-54.00	40.00	29.00	60.00	-57.00	-76.00	14.00
-54.00	24.00	33.00	-71.00	-48.00	-42.00	-26.00
-60.00	2.00	62.00	-146.00	-30.00	0.00	-43.00
-62.00	-7.00	118.00	-161.00	-17.00	21.00	-32.00
-53.00	-20.00	83.00	-170.00	-16.00	6.00	-33.00
-32.00	-7.00	-77.00	-161.00	-9.00	-16.00	-7.00
-25.00	1.00	-147.00	-76.00	0.00	12.00	6.00
-24.00	3.00	-202.00	-16.00	32.00	30.00	0.00
-8.00	17.00	-218.00	47.00	51.00	23.00	-16.00
3.00	-18.00	-184.00	46.00	52.00	11.00	0.00
3.00	-23.00	8.00	98.00	53.00	25.00	14.00
-6.00	-17.00	107.00	150.00	44.00	36.00	17.00
-39.00	-15.00	131.00	143.00	64.00	46.00	10.00
-51.00	-13.00	254.00	231.00	49.00	13.00	0.00
-42.00	9.00	310.00	314.00	-19.00	-36.00	11.00
-23.00	52.00	292.00	278.00	-80.00	-40.00	14.00
-16.00	63.00	193.00	145.00	-72.00	-45.00	14.00
-15.00	72.00	92.00	18.00	-43.00	-30.00	0.00
0.00	63.00	5.00	-45.00	-22.00	-13.00	2.00
17.00	57.00	-34.00	-80.00	-10.00	14.00	10.00
27.00	51.00	-51.00	-144.00	9.00	10.00	3.00
49.00	48.00	-55.00	-236.00	32.00	-12.00	13.00
52.00	75.00	-72.00	-238.00	44.00	-2.00	31.00
53.00	88.00	-53.00	-191.00	67.00	36.00	23.00
56.00	96.00	-48.00	-116.00	84.00	43.00	-4.00
53.00	84.00	-21.00	-11.00	104.00	35.00	-4.00
55.00	64.00	92.00	121.00	108.00	5.00	16.00
65.00	47.00	103.00	145.00	89.00	-23.00	0.00
79.00	33.00	49.00	72.00	78.00	23.00	-14.00
88.00	-12.00	19.00	21.00	75.00	41.00	-9.00
83.00	-38.00	-88.00	-15.00	62.00	42.00	-18.00
91.00	-66.00	-168.00	-10.00	38.00	15.00	-22.00
99.00	-98.00	-132.00	61.00	-9.00	-18.00	-21.00
103.00	-104.00	-203.00	74.00	-41.00	-54.00	8.00
107.00	-85.00	-206.00	106.00	-42.00	19.00	-7.00
102.00	-71.00	-132.00	101.00	-49.00	24.00	-15.00
90.00	-32.00	-23.00	63.00	-62.00	14.00	-3.00
77.00	-24.00	63.00	12.00	-72.00	13.00	12.00
61.00	-27.00	109.00	-50.00	-71.00	20.00	4.00
55.00	-18.00	107.00	-75.00	-75.00	35.00	6.00
54.00	-10.00	25.00	-76.00	-66.00	32.00	17.00
50.00	-11.00	-31.00	-18.00	-47.00	24.00	1.00
52.00	-29.00	-16.00	-3.00	-26.00	-3.00	25.00
60.00	-17.00	-7.00	-17.00	18.00	-26.00	34.00
52.00	-10.00	2.00	-42.00	85.00	9.00	49.00
49.00	-17.00	21.00	-47.00	106.00	55.00	50.00
29.00	-28.00	71.00	-63.00	101.00	48.00	41.00
-6.00	-23.00	108.00	-131.00	74.00	22.00	21.00
-31.00	-28.00	100.00	-135.00	47.00	1.00	25.00
-45.00	-48.00	-87.00	-106.00	49.00	11.00	20.00
-61.00	-48.00	-267.00	-95.00	48.00	15.00	4.00
-76.00	-29.00	-316.00	-14.00	23.00	8.00	-3.00
-75.00	-1.00	-333.00	47.00	15.00	-1.00	-20.00
-89.00	32.00	-234.00	-17.00	2.00	-1.00	-24.00
-108.00	36.00	-19.00	23.00	-8.00	1.00	-21.00
-126.00	46.00	240.00	37.00	-8.00	8.00	-9.00
-146.00	60.00	204.00	41.00	15.00	11.00	-19.00
-159.00	69.00	73.00	61.00	17.00	6.00	-25.00
-159.00	83.00	62.00	104.00	0.00	-9.00	-19.00
-168.00	88.00	105.00	91.00	-4.00	-12.00	-18.00
-178.00	76.00	110.00	64.00	2.00	-1.00	-29.00
-178.00	60.00	142.00	107.00	2.00	4.00	-38.00
-159.00	75.00	133.00	76.00	-20.00	-2.00	-33.00
-147.00	73.00	21.00	-15.00	-25.00	-1.00	-16.00
-137.00	68.00	-81.00	-84.00	-10.00	10.00	0.00
-128.00	51.00	-117.00	-114.00	-9.00	22.00	1.00
-117.00	64.00	-111.00	-96.00	-10.00	48.00	1.00
-96.00	85.00	-44.00	-70.00	-13.00	33.00	0.00
-60.00	63.00	85.00	-14.00	-7.00	24.00	10.00
-34.00	26.00	144.00	27.00	16.00	40.00	23.00
-13.00	-4.00	225.00	17.00	23.00	15.00	25.00
5.00	-8.00	254.00	-75.00	29.00	7.00	12.00
20.00	27.00	120.00	-104.00	40.00	-4.00	7.00
22.00	74.00	-31.00	-47.00	61.00	-2.00	15.00
27.00	74.00	-96.00	25.00	68.00	24.00	14.00
38.00	26.00	-92.00	89.00	14.00	34.00	0.00
51.00	-16.00	-126.00	114.00	9.00	23.00	2.00
65.00	-54.00	16.00	150.00	3.00	23.00	4.00
55.00	-55.00	153.00	180.00	-37.00	-12.00	10.00
50.00	-35.00	176.00	197.00	-74.00	-24.00	0.00
39.00	-15.00	123.00	159.00	-62.00	-4.00	-5.00
34.00	25.00	113.00	169.00	-39.00	2.00	-9.00
40.00	38.00	140.00	204.00	-26.00	3.00	-8.00
46.00	24.00	49.00	141.00	7.00	4.00	-3.00
44.00	14.00	-107.00	56.00	33.00	-8.00	11.00
47.00	5.00	-127.00	17.00	66.00	0.00	-7.00
53.00	-5.00	-44.00	27.00	99.00	-11.00	-21.00
62.00	1.00	-22.00	114.00	94.00	13.00	-20.00
52.00	-9.00	20.00	143.00	62.00	10.00	-20.00
55.00	-17.00	128.00	76.00	20.00	-29.00	-29.00
54.00	-23.00	101.00	33.00	3.00	-15.00	-4.00
52.00	-20.00	19.00	-12.00	-4.00	32.00	6.00
50.00	-10.00	-35.00	-44.00	-24.00	31.00	1.00
60.00	15.00	-32.00	-56.00	-21.00	13.00	7.00
60.00	37.00	-27.00	-73.00	-8.00	6.00	25.00
44.00	57.00	-43.00	-102.00	9.00	52.00	13.00
29.00	62.00	-58.00	-118.00	10.00	59.00	-3.00
44.00	63.00	-99.00	-116.00	9.00	39.00	18.00
61.00	50.00	-85.00	-119.00	24.00	4.00	24.00
69.00	23.00	-108.00	-131.00	35.00	-71.00	19.00
68.00	4.00	-189.00	-166.00	55.00	-24.00	16.00
59.00	3.00	-127.00	-189.00	34.00	-14.00	14.00
27.00	-5.00	27.00	-190.00	25.00	24.00	7.00
6.00	-15.00	43.00	-133.00	23.00	13.00	7.00
-1.00	1.00	-26.00	-114.00	16.00	7.00	11.00
3.00	7.00	-57.00	-47.00	3.00	-4.00	2.00
0.00	15.00	-145.00	29.00	14.00	18.00	-1.00
-7.00	27.00	-229.00	73.00	30.00	36.00	-5.00
-7.00	29.00	-149.00	73.00	27.00	42.00	8.00
2.00	25.00	79.00	93.00	-2.00	34.00	2.00
19.00	33.00	263.00	116.00	-16.00	-9.00	-3.00
35.00	46.00	249.00	56.00	6.00	5.00	-19.00
27.00	40.00	227.00	55.00	17.00	-41.00	-21.00
23.00	32.00	143.00	66.00	5.00	-19.00	-11.00
26.00	42.00	-42.00	37.00	-32.00	14.00	-8.00
19.00	51.00	-131.00	3.00	-40.00	29.00	-5.00
10.00	53.00	-81.00	-30.00	-22.00	26.00	5.00
-7.00	45.00	-94.00	-43.00	-19.00	-7.00	3.00
-18.00	45.00	-70.00	-35.00	0.00	39.00	10.00
-19.00	50.00	-78.00	-90.00	26.00	-22.00	19.00
-18.00	53.00	-22.00	-68.00	17.00	-20.00	17.00
-13.00	9.00	-14.00	-14.00	4.00	4.00	21.00
-5.00	-42.00	18.00	24.00	6.00	8.00	-1.00
-9.00	-65.00	27.00	27.00	21.00	9.00	-27.00
-2.00	-87.00	68.00	45.00	36.00	12.00	-33.00
13.00	-95.00	88.00	98.00	38.00	23.00	-28.00
15.00	-83.00	52.00	119.00	38.00	23.00	-21.00
9.00	-44.00	49.00	89.00	45.00	24.00	-27.00
0.00	-53.00	49.00	44.00	36.00	9.00	-22.00
-1.00	-72.00	29.00	38.00	53.00	24.00	-9.00
-1.00	-71.00	31.00	-67.00	57.00	4.00	-8.00
-3.00	-65.00	-36.00	-88.00	62.00	-14.00	11.00
-5.00	-32.00	47.00	-35.00	45.00	18.00	29.00
-2.00	17.00	106.00	16.00	34.00	22.00	32.00
-14.00	44.00	163.00	98.00	38.00	12.00	45.00
-26.00	50.00	185.00	183.00	23.00	-6.00	54.00
-31.00	47.00	173.00	241.00	20.00	1.00	33.00
