-3.00	110.00	159.00	53.00	-14.00	19.00	-3.00
12.00	74.00	159.00	44.00	-22.00	23.00	10.00
10.00	35.00	203.00	80.00	-29.00	15.00	9.00
12.00	7.00	195.00	139.00	-35.00	2.00	8.00
16.00	-63.00	155.00	177.00	-28.00	9.00	8.00
17.00	-100.00	90.00	108.00	-14.00	14.00	18.00
3.00	-4.00	-34.00	3.00	3.00	20.00	10.00
-3.00	76.00	-53.00	-56.00	2.00	24.00	9.00
-1.00	67.00	-45.00	-95.00	-10.00	20.00	23.00
-5.00	74.00	-75.00	-32.00	-23.00	13.00	25.00
-10.00	134.00	-50.00	-86.00	-12.00	11.00	26.00
-12.00	72.00	0.00	-66.00	5.00	8.00	22.00
-6.00	3.00	89.00	-13.00	7.00	4.00	7.00
-10.00	-55.00	195.00	-31.00	22.00	5.00	-14.00
-1.00	-91.00	204.00	-28.00	27.00	2.00	-44.00
2.00	-110.00	104.00	13.00	33.00	4.00	-34.00
7.00	-89.00	175.00	58.00	33.00	8.00	-2.00
13.00	-24.00	276.00	103.00	40.00	12.00	4.00
18.00	16.00	93.00	91.00	36.00	20.00	4.00
15.00	30.00	-59.00	79.00	44.00	25.00	4.00
4.00	39.00	-149.00	69.00	48.00	16.00	6.00
-1.00	33.00	-126.00	122.00	27.00	15.00	2.00
4.00	4.00	-59.00	141.00	17.00	16.00	25.00
12.00	-45.00	62.00	116.00	13.00	13.00	40.00
6.00	-63.00	155.00	70.00	5.00	14.00	35.00
-1.00	-115.00	96.00	22.00	11.00	7.00	20.00
3.00	-95.00	56.00	-59.00	10.00	4.00	4.00
7.00	-37.00	-91.00	-108.00	5.00	-4.00	-20.00
-1.00	-9.00	-169.00	-184.00	11.00	-6.00	-58.00
-3.00	2.00	-188.00	-184.00	22.00	5.00	-94.00
7.00	15.00	-201.00	8.00	24.00	15.00	-67.00
13.00	60.00	-128.00	34.00	21.00	16.00	-9.00
8.00	111.00	-25.00	86.00	15.00	7.00	31.00
-10.00	103.00	51.00	70.00	8.00	6.00	23.00
-13.00	78.00	-8.00	102.00	14.00	7.00	19.00
-1.00	42.00	-88.00	86.00	20.00	10.00	25.00
-2.00	57.00	-80.00	115.00	22.00	12.00	34.00
3.00	84.00	-66.00	81.00	20.00	13.00	31.00
4.00	120.00	-46.00	-38.00	17.00	2.00	19.00
5.00	154.00	7.00	-110.00	17.00	-2.00	-4.00
4.00	147.00	44.00	-146.00	22.00	7.00	-36.00
-5.00	109.00	3.00	-261.00	27.00	8.00	-52.00
-15.00	3.00	-53.00	-172.00	20.00	10.00	-71.00
-11.00	-132.00	-1.00	-19.00	19.00	4.00	-41.00
0.00	-126.00	98.00	41.00	8.00	5.00	-6.00
3.00	-51.00	98.00	77.00	-3.00	9.00	13.00
5.00	-13.00	82.00	71.00	-8.00	11.00	19.00
-2.00	-34.00	82.00	37.00	0.00	11.00	23.00
-17.00	-59.00	27.00	-29.00	4.00	15.00	22.00
-17.00	-45.00	-79.00	-22.00	10.00	15.00	19.00
-17.00	-12.00	-127.00	22.00	18.00	15.00	4.00
0.00	25.00	-57.00	7.00	19.00	15.00	-13.00
29.00	59.00	27.00	22.00	19.00	18.00	-23.00
40.00	82.00	54.00	124.00	28.00	20.00	-13.00
44.00	40.00	80.00	191.00	42.00	21.00	-18.00
40.00	52.00	181.00	187.00	35.00	15.00	-29.00
23.00	62.00	328.00	199.00	31.00	-3.00	-22.00
1.00	81.00	89.00	130.00	21.00	-13.00	-11.00
-13.00	89.00	-95.00	25.00	16.00	3.00	12.00
-11.00	34.00	-184.00	-173.00	12.00	1.00	27.00
-18.00	-29.00	-186.00	-190.00	10.00	5.00	35.00
-16.00	-21.00	-158.00	-96.00	7.00	15.00	79.00
-16.00	8.00	-173.00	-117.00	2.00	18.00	64.00
-7.00	-23.00	24.00	-53.00	-1.00	2.00	32.00
2.00	-47.00	114.00	-12.00	-9.00	-2.00	5.00
4.00	-21.00	36.00	-20.00	-11.00	1.00	-8.00
-7.00	-7.00	5.00	-70.00	-22.00	4.00	-49.00
-18.00	-16.00	153.00	7.00	-34.00	26.00	-63.00
-24.00	-37.00	213.00	40.00	-36.00	26.00	-29.00
-11.00	29.00	204.00	25.00	-20.00	22.00	-3.00
-1.00	74.00	215.00	51.00	-17.00	21.00	-5.00
-2.00	12.00	121.00	46.00	-7.00	14.00	-13.00
-2.00	-96.00	24.00	-10.00	4.00	11.00	-14.00
15.00	-119.00	-41.00	32.00	10.00	9.00	-18.00
10.00	-39.00	-81.00	23.00	17.00	14.00	-21.00
-5.00	73.00	-103.00	26.00	20.00	11.00	-16.00
4.00	111.00	-138.00	46.00	18.00	8.00	0.00
4.00	108.00	-142.00	45.00	25.00	6.00	2.00
6.00	97.00	-200.00	16.00	22.00	1.00	12.00
14.00	-10.00	-238.00	-27.00	16.00	-8.00	44.00
13.00	-56.00	-136.00	-42.00	17.00	3.00	64.00
0.00	-86.00	-38.00	-39.00	9.00	10.00	46.00
-17.00	-58.00	-34.00	-37.00	-3.00	5.00	25.00
-24.00	15.00	33.00	37.00	7.00	5.00	18.00
-8.00	34.00	101.00	138.00	16.00	14.00	19.00
-6.00	30.00	122.00	154.00	28.00	18.00	12.00
11.00	-6.00	66.00	121.00	42.00	19.00	-30.00
31.00	10.00	117.00	62.00	52.00	20.00	-54.00
25.00	22.00	171.00	53.00	49.00	15.00	-15.00
20.00	96.00	84.00	-31.00	37.00	9.00	-2.00
10.00	124.00	-64.00	-100.00	24.00	-1.00	0.00
2.00	96.00	-111.00	14.00	7.00	-4.00	6.00
-3.00	74.00	-157.00	48.00	3.00	3.00	1.00
1.00	24.00	-202.00	40.00	16.00	7.00	18.00
-2.00	-23.00	-153.00	-38.00	20.00	13.00	26.00
-4.00	-13.00	-58.00	-63.00	23.00	17.00	32.00
-2.00	7.00	68.00	-54.00	21.00	15.00	13.00
0.00	60.00	60.00	-27.00	11.00	14.00	-2.00
-4.00	78.00	34.00	8.00	2.00	9.00	-27.00
-9.00	94.00	74.00	-85.00	7.00	11.00	-47.00
-6.00	141.00	87.00	-173.00	14.00	13.00	-51.00
-9.00	89.00	18.00	-68.00	13.00	17.00	-58.00
-10.00	-130.00	-30.00	-95.00	10.00	9.00	-29.00
-6.00	-166.00	-5.00	-64.00	-1.00	-1.00	20.00
-2.00	-113.00	121.00	19.00	1.00	9.00	21.00
8.00	-96.00	190.00	102.00	17.00	9.00	15.00
8.00	-51.00	121.00	175.00	14.00	12.00	17.00
0.00	1.00	87.00	184.00	8.00	12.00	24.00
-14.00	11.00	86.00	156.00	12.00	11.00	18.00
-14.00	60.00	96.00	133.00	2.00	17.00	-14.00
0.00	91.00	82.00	70.00	10.00	18.00	-20.00
-4.00	118.00	-7.00	-87.00	11.00	15.00	-19.00
-7.00	44.00	-40.00	-37.00	8.00	10.00	-11.00
-8.00	-29.00	-116.00	-123.00	14.00	16.00	-4.00
-15.00	-55.00	-192.00	-90.00	16.00	26.00	-5.00
-10.00	-43.00	-144.00	-164.00	15.00	28.00	2.00
-4.00	26.00	-47.00	-64.00	17.00	18.00	14.00
-1.00	58.00	-1.00	-4.00	20.00	13.00	10.00
0.00	109.00	48.00	39.00	21.00	10.00	7.00
7.00	163.00	93.00	7.00	21.00	8.00	11.00
11.00	137.00	94.00	47.00	19.00	9.00	12.00
8.00	-3.00	53.00	97.00	22.00	15.00	21.00
3.00	-149.00	-12.00	54.00	18.00	13.00	13.00
5.00	-189.00	-67.00	-10.00	16.00	10.00	8.00
4.00	-104.00	-63.00	-46.00	12.00	7.00	5.00
6.00	-29.00	-84.00	-61.00	7.00	5.00	17.00
16.00	8.00	-19.00	-19.00	14.00	3.00	25.00
24.00	15.00	25.00	8.00	12.00	-21.00	27.00
22.00	32.00	5.00	20.00	10.00	4.00	25.00
26.00	29.00	35.00	70.00	12.00	14.00	24.00
27.00	42.00	33.00	89.00	15.00	14.00	5.00
9.00	83.00	76.00	83.00	16.00	-2.00	-15.00
2.00	84.00	122.00	36.00	21.00	2.00	-20.00
0.00	59.00	130.00	10.00	28.00	8.00	-22.00
-1.00	26.00	170.00	29.00	31.00	8.00	-36.00
4.00	-32.00	170.00	31.00	31.00	9.00	-50.00
8.00	-67.00	43.00	47.00	25.00	13.00	-27.00
9.00	-21.00	-55.00	114.00	20.00	17.00	-10.00
5.00	33.00	-5.00	145.00	19.00	10.00	-1.00
6.00	66.00	-70.00	131.00	22.00	7.00	5.00
2.00	96.00	-183.00	78.00	19.00	3.00	10.00
1.00	78.00	-179.00	34.00	17.00	2.00	6.00
4.00	35.00	-133.00	-54.00	28.00	5.00	2.00
6.00	10.00	-194.00	-173.00	20.00	-4.00	10.00
-5.00	18.00	-265.00	-102.00	16.00	-7.00	14.00
-9.00	25.00	-213.00	-31.00	12.00	3.00	18.00
-12.00	15.00	-98.00	-28.00	7.00	11.00	15.00
-13.00	25.00	-27.00	-59.00	-1.00	11.00	10.00
0.00	7.00	14.00	-112.00	-11.00	17.00	-1.00
6.00	1.00	50.00	-82.00	-13.00	16.00	-14.00
16.00	35.00	114.00	-25.00	-11.00	18.00	-21.00
8.00	31.00	144.00	26.00	-6.00	14.00	-18.00
9.00	-14.00	49.00	52.00	3.00	12.00	-1.00
18.00	-23.00	60.00	50.00	11.00	13.00	28.00
16.00	-8.00	126.00	44.00	14.00	15.00	40.00
19.00	-13.00	149.00	63.00	1.00	14.00	29.00
12.00	36.00	77.00	49.00	-3.00	16.00	16.00
3.00	21.00	-40.00	9.00	3.00	17.00	12.00
-1.00	-63.00	-58.00	-27.00	4.00	16.00	5.00
-6.00	-56.00	-41.00	-5.00	11.00	10.00	-13.00
-1.00	8.00	-44.00	41.00	10.00	10.00	-33.00
2.00	42.00	-116.00	-26.00	4.00	8.00	-50.00
-5.00	45.00	-49.00	-48.00	0.00	2.00	-19.00
-15.00	52.00	35.00	26.00	3.00	5.00	-22.00
-5.00	70.00	140.00	75.00	11.00	9.00	-19.00
2.00	96.00	147.00	147.00	14.00	11.00	-9.00
-4.00	92.00	123.00	155.00	20.00	11.00	-6.00
-5.00	23.00	158.00	118.00	25.00	11.00	0.00
-1.00	-36.00	185.00	35.00	27.00	10.00	7.00
-11.00	-38.00	141.00	-55.00	23.00	11.00	24.00
-11.00	-49.00	12.00	-173.00	21.00	14.00	19.00
-18.00	-48.00	-90.00	-157.00	16.00	16.00	6.00
-21.00	-2.00	-117.00	-122.00	13.00	13.00	-8.00
-16.00	34.00	-146.00	-81.00	18.00	11.00	-14.00
-13.00	35.00	-89.00	-8.00	14.00	6.00	-8.00
-11.00	8.00	1.00	91.00	12.00	2.00	3.00
-6.00	5.00	11.00	129.00	16.00	1.00	16.00
-6.00	34.00	1.00	131.00	23.00	4.00	16.00
-9.00	9.00	-30.00	81.00	27.00	9.00	25.00
5.00	-37.00	-61.00	1.00	33.00	2.00	44.00
8.00	-17.00	-89.00	-146.00	31.00	2.00	22.00
11.00	-4.00	-98.00	-330.00	24.00	3.00	12.00
18.00	27.00	-25.00	-128.00	27.00	1.00	0.00
10.00	46.00	26.00	-20.00	27.00	4.00	3.00
-6.00	14.00	40.00	19.00	6.00	9.00	4.00
-7.00	-12.00	40.00	47.00	-8.00	9.00	-9.00
-7.00	-32.00	22.00	61.00	-11.00	9.00	-21.00
-11.00	-24.00	-12.00	72.00	-1.00	7.00	-9.00
-14.00	14.00	6.00	84.00	3.00	2.00	-1.00
-17.00	43.00	56.00	72.00	7.00	9.00	-2.00
-20.00	63.00	61.00	52.00	13.00	16.00	-1.00
-8.00	47.00	60.00	28.00	13.00	25.00	21.00
5.00	74.00	85.00	36.00	12.00	24.00	21.00
2.00	89.00	66.00	4.00	12.00	22.00	12.00
1.00	38.00	57.00	25.00	7.00	13.00	5.00
-7.00	-28.00	-1.00	78.00	0.00	-17.00	2.00
-7.00	-24.00	-35.00	102.00	-1.00	-7.00	2.00
-6.00	-34.00	-36.00	97.00	0.00	20.00	12.00
2.00	2.00	-84.00	88.00	-6.00	24.00	19.00
7.00	49.00	-81.00	62.00	-10.00	25.00	33.00
3.00	56.00	-37.00	-22.00	0.00	22.00	31.00
4.00	62.00	-30.00	-145.00	-3.00	33.00	20.00
7.00	10.00	74.00	-121.00	3.00	30.00	-7.00
16.00	-55.00	119.00	-5.00	12.00	18.00	-47.00
14.00	-49.00	85.00	55.00	8.00	12.00	-52.00
7.00	-2.00	47.00	53.00	9.00	10.00	-39.00
7.00	41.00	75.00	25.00	4.00	9.00	-22.00
10.00	35.00	42.00	-59.00	2.00	6.00	-3.00
6.00	17.00	53.00	-39.00	4.00	6.00	6.00
5.00	-47.00	27.00	-18.00	5.00	10.00	10.00
13.00	-46.00	26.00	-25.00	13.00	9.00	5.00
11.00	29.00	14.00	10.00	17.00	7.00	0.00
5.00	56.00	-45.00	21.00	21.00	8.00	-3.00
5.00	73.00	-23.00	-11.00	24.00	11.00	0.00
8.00	46.00	-10.00	10.00	30.00	9.00	4.00
20.00	-23.00	-40.00	7.00	36.00	2.00	8.00
9.00	-66.00	-72.00	6.00	42.00	-1.00	7.00
6.00	-48.00	-96.00	1.00	40.00	5.00	9.00
6.00	32.00	-112.00	4.00	42.00	1.00	11.00
-4.00	70.00	-103.00	31.00	32.00	1.00	5.00
0.00	63.00	-96.00	25.00	22.00	6.00	8.00
-5.00	90.00	-38.00	30.00	18.00	12.00	0.00
-4.00	63.00	37.00	30.00	16.00	16.00	-6.00
-2.00	42.00	2.00	34.00	14.00	1.00	-15.00
6.00	32.00	-23.00	-2.00	14.00	-2.00	-4.00
-3.00	38.00	75.00	6.00	15.00	5.00	4.00
-11.00	36.00	47.00	23.00	16.00	11.00	9.00
-11.00	-13.00	-24.00	76.00	15.00	15.00	6.00
-15.00	-36.00	-26.00	74.00	12.00	14.00	-2.00
-8.00	-36.00	-68.00	36.00	11.00	12.00	-8.00
-4.00	-23.00	-90.00	3.00	12.00	9.00	-3.00
-5.00	-24.00	-118.00	-29.00	13.00	9.00	0.00
-8.00	-60.00	-76.00	-25.00	13.00	13.00	0.00
-10.00	-13.00	27.00	-60.00	16.00	16.00	4.00
-8.00	79.00	114.00	-38.00	30.00	14.00	8.00
5.00	50.00	113.00	-29.00	24.00	11.00	10.00
0.00	13.00	108.00	-31.00	22.00	8.00	11.00
7.00	15.00	44.00	-41.00	16.00	9.00	38.00
4.00	25.00	15.00	-30.00	16.00	9.00	55.00
4.00	-12.00	-9.00	-3.00	10.00	4.00	51.00
2.00	14.00	19.00	25.00	0.00	1.00	31.00
12.00	45.00	23.00	50.00	-6.00	3.00	24.00
16.00	59.00	52.00	50.00	-6.00	8.00	2.00
9.00	43.00	95.00	53.00	-2.00	9.00	-42.00
6.00	-31.00	148.00	51.00	9.00	10.00	-70.00
6.00	-52.00	146.00	74.00	8.00	9.00	-74.00
13.00	-45.00	116.00	86.00	6.00	12.00	-28.00
11.00	-24.00	-12.00	72.00	1.00	10.00	1.00
1.00	11.00	-121.00	27.00	-12.00	3.00	5.00
-5.00	26.00	-141.00	-9.00	-2.00	9.00	3.00
-5.00	46.00	-157.00	-40.00	3.00	11.00	-2.00
5.00	80.00	-113.00	105.00	6.00	12.00	-5.00
-2.00	102.00	-29.00	224.00	11.00	12.00	-15.00
-16.00	93.00	3.00	261.00	11.00	19.00	-14.00
-11.00	39.00	72.00	219.00	21.00	20.00	-4.00
-6.00	8.00	77.00	85.00	27.00	18.00	5.00
-1.00	-13.00	121.00	-97.00	31.00	16.00	13.00
-5.00	-38.00	166.00	-432.00	29.00	13.00	23.00
-10.00	-55.00	142.00	-453.00	29.00	4.00	20.00
-12.00	-45.00	61.00	-329.00	31.00	-8.00	8.00
-10.00	-46.00	31.00	-83.00	27.00	-13.00	-9.00
-6.00	-50.00	-18.00	-47.00	22.00	7.00	-28.00
0.00	-27.00	-94.00	-38.00	16.00	8.00	-34.00
-1.00	8.00	-131.00	15.00	10.00	8.00	-5.00
4.00	18.00	-120.00	12.00	-4.00	3.00	27.00
3.00	22.00	-39.00	-49.00	-16.00	6.00	29.00
-3.00	39.00	-40.00	-12.00	-11.00	17.00	39.00
-7.00	77.00	-47.00	26.00	-5.00	18.00	42.00
-9.00	69.00	-47.00	36.00	-9.00	17.00	24.00
-16.00	40.00	-57.00	41.00	-5.00	15.00	28.00
-19.00	40.00	-86.00	47.00	1.00	18.00	19.00
-19.00	52.00	-111.00	32.00	8.00	18.00	8.00
-19.00	48.00	-36.00	62.00	11.00	18.00	14.00
-15.00	36.00	47.00	105.00	13.00	21.00	16.00
-14.00	0.00	77.00	90.00	-5.00	21.00	9.00
-19.00	-10.00	48.00	39.00	-6.00	21.00	-1.00
-33.00	10.00	23.00	39.00	2.00	18.00	-2.00
-28.00	39.00	4.00	-54.00	16.00	13.00	-18.00
-21.00	83.00	11.00	-7.00	28.00	14.00	-27.00
-9.00	85.00	14.00	11.00	39.00	16.00	-8.00
-1.00	12.00	37.00	0.00	48.00	12.00	-1.00
11.00	3.00	49.00	14.00	44.00	12.00	13.00
13.00	61.00	85.00	21.00	43.00	11.00	31.00
32.00	106.00	47.00	42.00	39.00	8.00	26.00
28.00	115.00	-14.00	71.00	21.00	5.00	10.00
38.00	52.00	-24.00	77.00	6.00	4.00	-3.00
50.00	11.00	-48.00	66.00	2.00	2.00	-14.00
63.00	35.00	0.00	70.00	7.00	1.00	-36.00
66.00	10.00	81.00	87.00	-2.00	5.00	-51.00
74.00	-68.00	160.00	85.00	0.00	1.00	-32.00
71.00	-66.00	173.00	70.00	3.00	7.00	-24.00
69.00	-51.00	135.00	36.00	12.00	10.00	-14.00
80.00	-64.00	51.00	7.00	18.00	13.00	-13.00
75.00	-56.00	-30.00	-14.00	21.00	13.00	-12.00
71.00	-43.00	-75.00	-42.00	18.00	6.00	-6.00
59.00	-43.00	-116.00	-79.00	17.00	1.00	0.00
50.00	-31.00	-77.00	-54.00	14.00	1.00	8.00
50.00	-84.00	-31.00	39.00	12.00	2.00	17.00
48.00	-116.00	-58.00	77.00	9.00	5.00	24.00
55.00	-58.00	-90.00	62.00	7.00	4.00	24.00
48.00	12.00	-85.00	16.00	4.00	6.00	7.00
40.00	35.00	-74.00	-48.00	2.00	9.00	4.00
34.00	23.00	-15.00	-87.00	8.00	5.00	7.00
30.00	63.00	-2.00	-68.00	12.00	2.00	9.00
29.00	103.00	50.00	-23.00	16.00	9.00	20.00
24.00	115.00	68.00	24.00	23.00	9.00	42.00
21.00	159.00	59.00	51.00	25.00	6.00	37.00
7.00	139.00	66.00	33.00	20.00	9.00	20.00
1.00	35.00	102.00	38.00	10.00	16.00	7.00
-13.00	-64.00	88.00	3.00	5.00	14.00	4.00
-36.00	-94.00	36.00	-38.00	0.00	12.00	5.00
-56.00	-74.00	-19.00	-79.00	-4.00	12.00	1.00
-63.00	-39.00	-25.00	-78.00	-3.00	16.00	-6.00
-67.00	-43.00	-1.00	-6.00	-3.00	13.00	-5.00
-76.00	-20.00	37.00	36.00	0.00	16.00	-3.00
-82.00	7.00	52.00	71.00	13.00	12.00	-3.00
-92.00	31.00	69.00	73.00	44.00	15.00	-24.00
-97.00	34.00	26.00	51.00	39.00	22.00	-24.00
-99.00	25.00	-36.00	18.00	33.00	23.00	-10.00
-100.00	-14.00	-150.00	20.00	23.00	20.00	-12.00
-103.00	-31.00	-220.00	-49.00	2.00	14.00	-16.00
-105.00	-18.00	-114.00	-81.00	1.00	13.00	-5.00
-107.00	28.00	-3.00	-6.00	-3.00	11.00	-7.00
-101.00	71.00	75.00	19.00	-10.00	1.00	1.00
-92.00	53.00	132.00	30.00	-11.00	-7.00	6.00
-87.00	51.00	89.00	30.00	-8.00	0.00	3.00
-75.00	42.00	-20.00	-20.00	2.00	12.00	6.00
-54.00	42.00	-53.00	16.00	10.00	24.00	9.00
-38.00	33.00	-82.00	30.00	16.00	19.00	7.00
-36.00	25.00	-46.00	56.00	12.00	11.00	6.00
-25.00	10.00	-4.00	79.00	3.00	12.00	9.00
-18.00	13.00	26.00	44.00	0.00	16.00	7.00
-6.00	-21.00	40.00	52.00	0.00	16.00	1.00
8.00	-39.00	-24.00	76.00	4.00	14.00	-2.00
3.00	7.00	-164.00	47.00	4.00	18.00	1.00
1.00	29.00	-159.00	-29.00	4.00	18.00	2.00
0.00	20.00	-153.00	-104.00	4.00	10.00	8.00
9.00	43.00	-16.00	-80.00	-1.00	3.00	11.00
19.00	92.00	83.00	-53.00	11.00	4.00	28.00
20.00	99.00	42.00	-92.00	20.00	2.00	28.00
19.00	106.00	63.00	-2.00	21.00	-13.00	30.00
15.00	95.00	41.00	9.00	23.00	-25.00	27.00
14.00	26.00	12.00	16.00	25.00	5.00	2.00
15.00	-28.00	23.00	-43.00	23.00	12.00	-12.00
13.00	-11.00	97.00	-127.00	19.00	17.00	-34.00
15.00	-16.00	108.00	-72.00	18.00	12.00	-57.00
24.00	-29.00	96.00	-11.00	13.00	9.00	-24.00
28.00	-25.00	168.00	-8.00	14.00	13.00	7.00
31.00	-12.00	210.00	61.00	14.00	16.00	14.00
43.00	54.00	171.00	99.00	18.00	11.00	14.00
52.00	27.00	126.00	129.00	21.00	7.00	6.00
45.00	-23.00	62.00	98.00	19.00	12.00	-13.00
45.00	-41.00	50.00	86.00	18.00	16.00	-24.00
46.00	-10.00	22.00	50.00	22.00	18.00	-19.00
34.00	39.00	-36.00	3.00	19.00	15.00	-5.00
29.00	74.00	-105.00	-112.00	15.00	13.00	-1.00
32.00	109.00	-130.00	24.00	14.00	9.00	-8.00
39.00	65.00	-97.00	64.00	-6.00	5.00	-8.00
47.00	33.00	-96.00	20.00	-2.00	9.00	-3.00
37.00	41.00	-152.00	-29.00	12.00	9.00	-6.00
27.00	14.00	-185.00	-82.00	31.00	6.00	-2.00
23.00	-91.00	-144.00	-106.00	33.00	-4.00	6.00
20.00	-154.00	-100.00	-27.00	37.00	0.00	10.00
17.00	-95.00	-60.00	34.00	44.00	7.00	2.00
11.00	-4.00	-6.00	-7.00	38.00	6.00	-8.00
11.00	52.00	78.00	-34.00	32.00	11.00	-1.00
19.00	76.00	118.00	8.00	26.00	8.00	0.00
26.00	37.00	86.00	27.00	18.00	7.00	11.00
23.00	41.00	48.00	63.00	12.00	11.00	21.00
11.00	24.00	36.00	93.00	12.00	14.00	28.00
13.00	35.00	18.00	76.00	14.00	19.00	44.00
14.00	67.00	28.00	59.00	5.00	21.00	25.00
18.00	-11.00	46.00	55.00	0.00	10.00	3.00
10.00	-71.00	37.00	12.00	-7.00	12.00	-4.00
1.00	-43.00	-28.00	-63.00	-9.00	10.00	-3.00
-3.00	54.00	-52.00	2.00	-2.00	11.00	-3.00
-4.00	88.00	-39.00	37.00	0.00	6.00	-6.00
-3.00	39.00	27.00	63.00	-1.00	14.00	1.00
7.00	-53.00	53.00	81.00	5.00	20.00	22.00
18.00	-74.00	25.00	70.00	4.00	20.00	15.00
18.00	-38.00	41.00	22.00	3.00	16.00	14.00
17.00	-24.00	73.00	5.00	5.00	5.00	9.00
10.00	-14.00	87.00	-88.00	5.00	5.00	4.00
-7.00	1.00	47.00	-37.00	10.00	6.00	-11.00
-13.00	-7.00	-32.00	-27.00	18.00	13.00	-25.00
-12.00	9.00	-72.00	-9.00	18.00	8.00	-5.00
-8.00	16.00	-96.00	-2.00	22.00	14.00	15.00
-8.00	33.00	-22.00	-5.00	20.00	17.00	18.00
-3.00	59.00	10.00	-6.00	16.00	15.00	18.00
4.00	63.00	6.00	-3.00	18.00	12.00	15.00
0.00	92.00	7.00	16.00	16.00	11.00	-4.00
-3.00	139.00	47.00	20.00	14.00	6.00	-32.00
4.00	137.00	119.00	2.00	9.00	4.00	-42.00
7.00	97.00	126.00	59.00	6.00	16.00	-39.00
-3.00	38.00	130.00	22.00	9.00	11.00	-28.00
-1.00	4.00	83.00	53.00	12.00	8.00	-26.00
-8.00	-41.00	24.00	52.00	14.00	9.00	-11.00
-6.00	-54.00	-96.00	30.00	20.00	12.00	24.00
-9.00	-15.00	-201.00	-14.00	33.00	10.00	28.00
-2.00	23.00	-213.00	-47.00	33.00	16.00	19.00
-5.00	33.00	-141.00	-36.00	30.00	5.00	22.00
-10.00	32.00	-34.00	54.00	27.00	6.00	20.00
-13.00	33.00	-20.00	22.00	13.00	14.00	10.00
-13.00	-20.00	-37.00	-10.00	7.00	13.00	0.00
-9.00	-29.00	-30.00	47.00	8.00	14.00	-1.00
-2.00	-11.00	-22.00	101.00	15.00	14.00	9.00
3.00	-61.00	-3.00	86.00	18.00	11.00	10.00
10.00	-118.00	9.00	19.00	17.00	5.00	15.00
8.00	-47.00	61.00	-15.00	9.00	3.00	16.00
12.00	11.00	90.00	-12.00	13.00	5.00	10.00
5.00	42.00	155.00	-58.00	15.00	8.00	1.00
-1.00	8.00	83.00	-237.00	20.00	7.00	-12.00
14.00	-43.00	94.00	-177.00	17.00	6.00	-20.00
13.00	2.00	51.00	-39.00	14.00	6.00	-28.00
10.00	69.00	-11.00	61.00	12.00	8.00	-31.00
4.00	103.00	-14.00	123.00	10.00	5.00	3.00
-2.00	143.00	-24.00	184.00	3.00	12.00	17.00
-10.00	98.00	-45.00	181.00	-5.00	22.00	24.00
-10.00	-8.00	-94.00	120.00	-14.00	23.00	24.00
-13.00	-68.00	-68.00	-20.00	-14.00	0.00	28.00
-6.00	-72.00	-3.00	-139.00	-7.00	-17.00	8.00
6.00	-69.00	-54.00	-285.00	3.00	3.00	-9.00
13.00	-50.00	-87.00	-187.00	3.00	-1.00	-30.00
23.00	-9.00	-31.00	-50.00	-3.00	2.00	-31.00
11.00	72.00	57.00	3.00	0.00	7.00	-12.00
3.00	102.00	42.00	30.00	1.00	17.00	-19.00
-2.00	75.00	32.00	59.00	5.00	20.00	-57.00
-5.00	26.00	28.00	50.00	20.00	17.00	-24.00
-8.00	-1.00	14.00	4.00	37.00	13.00	-2.00
-6.00	28.00	16.00	9.00	45.00	13.00	1.00
3.00	26.00	-20.00	10.00	38.00	15.00	-2.00
-5.00	28.00	-30.00	12.00	19.00	3.00	6.00
-14.00	64.00	-21.00	41.00	-20.00	7.00	5.00
-19.00	52.00	44.00	71.00	-21.00	16.00	7.00
-17.00	6.00	64.00	125.00	-15.00	16.00	5.00
-7.00	10.00	41.00	146.00	3.00	17.00	-4.00
6.00	-44.00	-38.00	137.00	18.00	14.00	-5.00
19.00	-75.00	-78.00	85.00	30.00	13.00	0.00
16.00	-48.00	-64.00	14.00	45.00	14.00	-1.00
7.00	1.00	-23.00	-23.00	42.00	5.00	1.00
4.00	11.00	15.00	-96.00	35.00	5.00	6.00
-2.00	36.00	79.00	15.00	32.00	9.00	12.00
-1.00	74.00	178.00	2.00	22.00	13.00	15.00
2.00	67.00	187.00	30.00	11.00	13.00	12.00
-1.00	95.00	198.00	1.00	4.00	9.00	8.00
-2.00	103.00	131.00	-37.00	5.00	4.00	2.00
0.00	56.00	35.00	-53.00	6.00	4.00	10.00
-16.00	-2.00	-32.00	-11.00	-3.00	4.00	28.00
-22.00	-1.00	-4.00	64.00	-4.00	7.00	25.00
-23.00	18.00	-1.00	48.00	-1.00	12.00	15.00
-20.00	-26.00	23.00	7.00	10.00	12.00	11.00
-22.00	-95.00	115.00	-50.00	16.00	14.00	12.00
-21.00	-80.00	70.00	-59.00	17.00	11.00	0.00
-7.00	-29.00	-67.00	3.00	27.00	5.00	-15.00
-6.00	18.00	-210.00	35.00	30.00	6.00	-9.00
7.00	21.00	-266.00	36.00	35.00	8.00	2.00
20.00	37.00	-224.00	-5.00	38.00	7.00	-8.00
22.00	45.00	-165.00	-24.00	30.00	5.00	-22.00
29.00	21.00	-100.00	-39.00	19.00	6.00	-41.00
17.00	-27.00	-71.00	-97.00	14.00	4.00	-26.00
5.00	-27.00	-5.00	-117.00	6.00	8.00	-6.00
-2.00	5.00	-26.00	10.00	10.00	13.00	10.00
1.00	-3.00	29.00	69.00	24.00	18.00	24.00
-2.00	-3.00	73.00	107.00	40.00	14.00	18.00
0.00	-28.00	112.00	126.00	30.00	13.00	18.00
8.00	-13.00	116.00	133.00	25.00	16.00	30.00
10.00	18.00	89.00	118.00	16.00	20.00	26.00
5.00	77.00	55.00	145.00	1.00	20.00	9.00
9.00	149.00	9.00	141.00	-10.00	20.00	2.00
9.00	195.00	15.00	45.00	-15.00	16.00	-5.00
9.00	152.00	-3.00	-43.00	-18.00	7.00	-7.00
5.00	99.00	44.00	-100.00	-19.00	-7.00	-5.00
-9.00	57.00	143.00	-130.00	0.00	4.00	-9.00
-18.00	31.00	122.00	-152.00	20.00	13.00	-6.00
-25.00	29.00	64.00	-228.00	18.00	17.00	23.00
-22.00	-69.00	-9.00	-81.00	21.00	17.00	36.00
-24.00	-157.00	-82.00	-12.00	13.00	10.00	27.00
-22.00	-233.00	-124.00	62.00	6.00	10.00	18.00
-10.00	-181.00	-114.00	108.00	13.00	8.00	6.00
-10.00	-85.00	-44.00	107.00	19.00	10.00	-11.00
0.00	29.00	8.00	105.00	8.00	5.00	-32.00
12.00	64.00	19.00	110.00	2.00	3.00	-3.00
19.00	117.00	-11.00	19.00	9.00	7.00	3.00
18.00	165.00	-96.00	-219.00	25.00	8.00	2.00
10.00	103.00	-144.00	-283.00	46.00	4.00	3.00
16.00	32.00	-85.00	-99.00	63.00	-7.00	10.00
7.00	15.00	-109.00	-37.00	71.00	-2.00	28.00
-12.00	-23.00	-81.00	-28.00	61.00	7.00	24.00
-15.00	-70.00	-57.00	-4.00	49.00	8.00	11.00
-8.00	-73.00	72.00	38.00	23.00	5.00	3.00
-1.00	-11.00	152.00	86.00	0.00	5.00	-6.00
11.00	38.00	164.00	126.00	-9.00	6.00	-22.00
6.00	56.00	78.00	112.00	-16.00	7.00	-14.00
7.00	46.00	50.00	54.00	-19.00	16.00	4.00
14.00	73.00	27.00	10.00	-30.00	21.00	12.00
15.00	90.00	-11.00	-66.00	-34.00	20.00	12.00
1.00	48.00	-24.00	-64.00	-29.00	20.00	6.00
2.00	-71.00	-21.00	-9.00	-27.00	16.00	-7.00
6.00	-131.00	63.00	14.00	-11.00	17.00	-36.00
19.00	-39.00	92.00	22.00	-8.00	19.00	-87.00
21.00	-24.00	241.00	74.00	-18.00	23.00	-87.00
9.00	9.00	224.00	121.00	-15.00	27.00	-29.00
5.00	116.00	171.00	133.00	-11.00	27.00	6.00
10.00	118.00	25.00	131.00	3.00	22.00	2.00
12.00	73.00	-96.00	118.00	18.00	19.00	-5.00
-3.00	88.00	-181.00	58.00	23.00	17.00	-11.00
-18.00	64.00	-249.00	-44.00	30.00	1.00	-5.00
-18.00	16.00	-74.00	-87.00	25.00	-36.00	15.00
-14.00	27.00	68.00	-106.00	30.00	-4.00	40.00
-14.00	18.00	108.00	-38.00	32.00	5.00	35.00
-7.00	-39.00	142.00	33.00	30.00	5.00	29.00
-7.00	-36.00	25.00	74.00	-1.00	8.00	15.00
11.00	-38.00	-31.00	77.00	-2.00	5.00	0.00
16.00	-53.00	-58.00	42.00	0.00	3.00	-7.00
15.00	-62.00	-37.00	26.00	6.00	3.00	-10.00
24.00	-30.00	-77.00	31.00	12.00	5.00	-11.00
24.00	27.00	-43.00	-13.00	28.00	7.00	-12.00
11.00	102.00	40.00	-46.00	47.00	6.00	0.00
10.00	186.00	117.00	9.00	56.00	4.00	7.00
6.00	104.00	50.00	63.00	57.00	6.00	4.00
0.00	-62.00	3.00	97.00	57.00	7.00	1.00
-2.00	-163.00	49.00	74.00	37.00	4.00	10.00
-1.00	-225.00	114.00	85.00	20.00	1.00	14.00
-17.00	-236.00	62.00	79.00	19.00	7.00	15.00
-14.00	-123.00	-7.00	-21.00	24.00	14.00	20.00
-12.00	12.00	-70.00	-91.00	30.00	16.00	16.00
-9.00	93.00	-166.00	-156.00	14.00	7.00	15.00
13.00	181.00	-283.00	-206.00	6.00	2.00	24.00
39.00	246.00	-304.00	-212.00	-5.00	6.00	29.00
30.00	221.00	-222.00	-94.00	-7.00	8.00	26.00
12.00	85.00	-160.00	19.00	-3.00	4.00	19.00
2.00	107.00	-16.00	106.00	-2.00	5.00	20.00
-8.00	142.00	73.00	161.00	5.00	5.00	7.00
-1.00	89.00	99.00	145.00	18.00	12.00	-18.00
-6.00	37.00	165.00	134.00	17.00	14.00	-35.00
-8.00	-71.00	215.00	128.00	17.00	10.00	-41.00
1.00	-157.00	217.00	45.00	15.00	12.00	-54.00
-6.00	-74.00	122.00	4.00	11.00	10.00	-26.00
-20.00	50.00	-17.00	-109.00	8.00	10.00	-7.00
-22.00	65.00	-137.00	-53.00	3.00	16.00	-4.00
-16.00	105.00	-161.00	-198.00	-1.00	18.00	-4.00
2.00	40.00	-100.00	-403.00	-3.00	17.00	3.00
10.00	-51.00	-49.00	-152.00	-6.00	15.00	29.00
13.00	-48.00	6.00	3.00	-15.00	17.00	30.00
2.00	-43.00	52.00	39.00	-13.00	15.00	17.00
2.00	-43.00	180.00	85.00	-4.00	18.00	1.00
2.00	-38.00	257.00	91.00	-4.00	20.00	-2.00
-2.00	-44.00	215.00	34.00	-3.00	24.00	-3.00
2.00	-14.00	170.00	-67.00	4.00	24.00	1.00
-6.00	18.00	141.00	12.00	7.00	22.00	-6.00
-3.00	21.00	62.00	40.00	18.00	20.00	-6.00
6.00	45.00	-82.00	67.00	23.00	19.00	13.00
3.00	61.00	-260.00	61.00	8.00	10.00	6.00
-12.00	69.00	-319.00	55.00	-8.00	12.00	5.00
-12.00	47.00	-308.00	26.00	1.00	9.00	0.00
-5.00	36.00	-253.00	17.00	14.00	8.00	-7.00
-7.00	-15.00	-73.00	35.00	20.00	3.00	-18.00
0.00	-92.00	95.00	78.00	32.00	7.00	-15.00
3.00	-69.00	230.00	61.00	40.00	10.00	9.00
5.00	1.00	335.00	41.00	39.00	7.00	23.00
1.00	3.00	343.00	69.00	40.00	-3.00	40.00
5.00	-26.00	193.00	64.00	45.00	8.00	50.00
2.00	-6.00	3.00	63.00	45.00	12.00	49.00
0.00	83.00	-176.00	38.00	47.00	13.00	46.00
5.00	126.00	-229.00	9.00	55.00	10.00	16.00
-12.00	152.00	-197.00	-28.00	27.00	8.00	-46.00
-15.00	162.00	-95.00	-72.00	-20.00	11.00	-89.00
-15.00	48.00	55.00	-48.00	-42.00	10.00	-52.00
-30.00	-54.00	97.00	9.00	-42.00	12.00	-20.00
-29.00	-105.00	-32.00	54.00	-32.00	9.00	-11.00
-14.00	-98.00	-111.00	71.00	-16.00	5.00	-20.00
-1.00	-54.00	-174.00	87.00	-9.00	9.00	-14.00
0.00	0.00	-212.00	45.00	-4.00	9.00	-16.00
8.00	18.00	-73.00	-12.00	9.00	8.00	-7.00
11.00	40.00	-18.00	6.00	5.00	-2.00	1.00
15.00	47.00	88.00	26.00	-2.00	2.00	2.00
24.00	11.00	177.00	-3.00	-2.00	8.00	-3.00
23.00	15.00	221.00	5.00	-4.00	11.00	-19.00
19.00	28.00	238.00	-86.00	0.00	13.00	-35.00
7.00	44.00	241.00	-66.00	6.00	10.00	-24.00
8.00	56.00	184.00	-2.00	10.00	10.00	-8.00
3.00	68.00	71.00	32.00	16.00	8.00	2.00
9.00	62.00	-52.00	38.00	25.00	14.00	3.00
5.00	43.00	-158.00	52.00	27.00	15.00	8.00
2.00	16.00	-131.00	137.00	20.00	15.00	22.00
14.00	-62.00	-42.00	181.00	19.00	17.00	33.00
3.00	-65.00	53.00	136.00	16.00	18.00	12.00
-4.00	-25.00	52.00	56.00	18.00	14.00	11.00
-6.00	7.00	-36.00	-155.00	19.00	7.00	17.00
-7.00	-6.00	-89.00	-218.00	17.00	3.00	30.00
-4.00	-21.00	2.00	-254.00	27.00	1.00	40.00
-9.00	20.00	19.00	-326.00	35.00	-1.00	44.00
-12.00	96.00	-29.00	-100.00	40.00	1.00	51.00
-11.00	136.00	5.00	14.00	41.00	8.00	34.00
-9.00	141.00	79.00	69.00	35.00	7.00	17.00
-8.00	38.00	46.00	89.00	38.00	7.00	-10.00
-9.00	-54.00	-36.00	32.00	39.00	11.00	-27.00
-7.00	-115.00	-45.00	-2.00	32.00	15.00	-50.00
4.00	-177.00	60.00	-2.00	20.00	15.00	-70.00
10.00	-137.00	86.00	4.00	7.00	13.00	-58.00
20.00	-69.00	67.00	39.00	6.00	-12.00	-37.00
27.00	-20.00	59.00	86.00	1.00	-9.00	-15.00
18.00	5.00	34.00	119.00	4.00	10.00	2.00
16.00	61.00	-56.00	114.00	7.00	17.00	1.00
11.00	109.00	-193.00	56.00	7.00	16.00	7.00
0.00	82.00	-245.00	-4.00	1.00	11.00	5.00
-4.00	60.00	-167.00	-41.00	-2.00	9.00	9.00
5.00	57.00	-98.00	-175.00	0.00	7.00	20.00
13.00	12.00	7.00	-112.00	5.00	15.00	12.00
14.00	-14.00	84.00	34.00	10.00	17.00	-1.00
9.00	32.00	99.00	76.00	11.00	13.00	24.00
4.00	65.00	38.00	111.00	25.00	12.00	47.00
-5.00	53.00	-88.00	110.00	27.00	7.00	22.00
-6.00	70.00	-138.00	101.00	24.00	8.00	2.00
-1.00	42.00	-90.00	117.00	26.00	10.00	0.00
-5.00	-43.00	-47.00	81.00	19.00	8.00	2.00
-2.00	-84.00	-20.00	55.00	7.00	18.00	5.00
4.00	-27.00	21.00	24.00	-15.00	17.00	3.00
13.00	-34.00	76.00	-50.00	-23.00	17.00	-4.00
13.00	-28.00	115.00	-58.00	-21.00	13.00	2.00
12.00	31.00	95.00	-28.00	-6.00	11.00	-2.00
3.00	122.00	57.00	-16.00	14.00	16.00	-8.00
-3.00	178.00	67.00	24.00	27.00	8.00	-4.00
-12.00	148.00	56.00	-19.00	38.00	8.00	3.00
-8.00	111.00	27.00	-31.00	43.00	13.00	30.00
-18.00	61.00	33.00	-57.00	28.00	16.00	36.00
-21.00	24.00	66.00	-48.00	5.00	10.00	40.00
-23.00	10.00	88.00	-5.00	-9.00	5.00	40.00
-19.00	-32.00	72.00	21.00	-9.00	10.00	33.00
-6.00	-103.00	58.00	32.00	-4.00	7.00	15.00
-2.00	-152.00	123.00	21.00	0.00	8.00	-21.00
-2.00	-156.00	201.00	28.00	-5.00	14.00	-61.00
-9.00	-95.00	197.00	82.00	-11.00	17.00	-59.00
1.00	-48.00	104.00	104.00	-11.00	17.00	-34.00
-3.00	8.00	-19.00	60.00	0.00	14.00	-19.00
-16.00	41.00	-122.00	51.00	12.00	11.00	-6.00
-15.00	80.00	-211.00	13.00	18.00	9.00	3.00
4.00	71.00	-212.00	-61.00	16.00	9.00	10.00
14.00	59.00	-260.00	-151.00	18.00	5.00	4.00
26.00	45.00	-204.00	-97.00	22.00	2.00	-8.00
34.00	61.00	-101.00	2.00	22.00	5.00	-9.00
33.00	51.00	-23.00	15.00	26.00	5.00	-12.00
29.00	45.00	-22.00	42.00	32.00	3.00	-4.00
23.00	103.00	-28.00	132.00	27.00	-10.00	8.00
14.00	106.00	45.00	137.00	23.00	-4.00	17.00
2.00	27.00	33.00	87.00	12.00	4.00	56.00
-5.00	-55.00	22.00	13.00	12.00	10.00	44.00
-11.00	-132.00	38.00	-45.00	10.00	14.00	24.00
-3.00	-119.00	-35.00	-76.00	9.00	8.00	-2.00
-4.00	-25.00	16.00	-149.00	0.00	2.00	-12.00
4.00	28.00	71.00	-210.00	6.00	6.00	-3.00
-4.00	53.00	60.00	-55.00	21.00	10.00	-4.00
-9.00	60.00	-16.00	13.00	30.00	15.00	-11.00
-3.00	62.00	-53.00	51.00	37.00	13.00	-4.00
-3.00	54.00	-7.00	25.00	46.00	16.00	15.00
-7.00	-8.00	123.00	40.00	33.00	12.00	19.00
-17.00	-14.00	139.00	56.00	18.00	14.00	17.00
-18.00	16.00	145.00	106.00	17.00	14.00	9.00
-12.00	63.00	152.00	110.00	11.00	14.00	6.00
-9.00	93.00	108.00	93.00	25.00	11.00	-6.00
-4.00	11.00	28.00	128.00	19.00	6.00	-36.00
0.00	-34.00	-71.00	69.00	6.00	18.00	-56.00
2.00	-11.00	-116.00	-51.00	-3.00	31.00	-56.00
4.00	37.00	-54.00	-109.00	-12.00	31.00	-41.00
9.00	68.00	0.00	-203.00	-14.00	20.00	-4.00
13.00	102.00	87.00	-136.00	-10.00	17.00	20.00
2.00	141.00	84.00	-20.00	-5.00	21.00	30.00
-10.00	102.00	39.00	54.00	2.00	21.00	18.00
-9.00	-1.00	40.00	97.00	10.00	20.00	18.00
-1.00	-26.00	68.00	71.00	11.00	16.00	19.00
-2.00	27.00	-11.00	2.00	0.00	11.00	21.00
-7.00	37.00	-58.00	-76.00	-12.00	4.00	15.00
-3.00	3.00	-45.00	-30.00	-19.00	2.00	3.00
4.00	-128.00	-60.00	-28.00	-1.00	9.00	3.00
3.00	-176.00	-7.00	-7.00	14.00	11.00	0.00
2.00	-116.00	-97.00	-13.00	28.00	10.00	-10.00
9.00	-66.00	-119.00	30.00	35.00	12.00	-33.00
6.00	-48.00	-129.00	40.00	36.00	10.00	-36.00
-9.00	-37.00	-169.00	15.00	34.00	5.00	-18.00
-5.00	-1.00	-198.00	23.00	28.00	-13.00	3.00
-2.00	46.00	-222.00	53.00	20.00	-17.00	19.00
-5.00	64.00	-123.00	31.00	22.00	2.00	22.00
6.00	26.00	1.00	-57.00	23.00	6.00	21.00
15.00	2.00	99.00	15.00	28.00	5.00	16.00
15.00	9.00	137.00	69.00	26.00	4.00	17.00
6.00	44.00	106.00	77.00	25.00	3.00	5.00
9.00	87.00	108.00	45.00	22.00	6.00	-14.00
4.00	58.00	71.00	-61.00	22.00	10.00	-14.00
8.00	24.00	8.00	-35.00	18.00	10.00	6.00
13.00	76.00	12.00	35.00	4.00	3.00	12.00
7.00	46.00	13.00	59.00	3.00	2.00	6.00
4.00	-29.00	5.00	83.00	7.00	3.00	24.00
15.00	-58.00	38.00	70.00	9.00	8.00	17.00
12.00	-45.00	92.00	44.00	7.00	1.00	23.00
7.00	-5.00	95.00	54.00	8.00	3.00	20.00
2.00	2.00	98.00	63.00	5.00	13.00	25.00
1.00	0.00	41.00	9.00	20.00	17.00	22.00
1.00	-18.00	12.00	-62.00	4.00	12.00	-11.00
0.00	-5.00	-8.00	7.00	-4.00	9.00	-50.00
-2.00	61.00	3.00	-14.00	6.00	12.00	-68.00
-1.00	81.00	23.00	-71.00	10.00	11.00	-48.00
6.00	85.00	61.00	-90.00	17.00	10.00	-36.00
8.00	92.00	113.00	-106.00	31.00	12.00	-19.00
2.00	43.00	92.00	-16.00	46.00	15.00	-6.00
0.00	84.00	-20.00	60.00	50.00	13.00	6.00
-5.00	77.00	-123.00	18.00	46.00	8.00	8.00
-17.00	56.00	-137.00	-17.00	37.00	12.00	11.00
-20.00	60.00	-44.00	27.00	17.00	12.00	12.00
-15.00	-46.00	-32.00	50.00	-7.00	11.00	11.00
-8.00	-87.00	-76.00	30.00	-11.00	13.00	6.00
-10.00	-39.00	-52.00	-46.00	-8.00	12.00	6.00
-15.00	24.00	-3.00	-79.00	-6.00	13.00	8.00
-11.00	46.00	54.00	37.00	-6.00	9.00	3.00
-4.00	41.00	93.00	35.00	-5.00	5.00	6.00
-9.00	27.00	100.00	-8.00	-4.00	7.00	6.00
-7.00	0.00	88.00	-12.00	2.00	10.00	3.00
-2.00	-25.00	62.00	79.00	8.00	6.00	8.00
21.00	-50.00	-7.00	65.00	8.00	8.00	11.00
28.00	-55.00	48.00	88.00	10.00	8.00	9.00
26.00	-9.00	103.00	83.00	12.00	8.00	21.00
13.00	89.00	99.00	46.00	17.00	10.00	22.00
11.00	150.00	109.00	2.00	20.00	13.00	20.00
12.00	155.00	67.00	-139.00	25.00	15.00	13.00
0.00	51.00	35.00	-79.00	22.00	18.00	6.00
-6.00	24.00	-16.00	30.00	18.00	18.00	-11.00
-8.00	23.00	-56.00	22.00	10.00	13.00	-37.00
-8.00	5.00	-88.00	44.00	-2.00	6.00	-18.00
-6.00	-39.00	-129.00	22.00	-5.00	-10.00	7.00
-6.00	-173.00	-91.00	-44.00	5.00	-5.00	5.00
1.00	-221.00	-22.00	-54.00	18.00	6.00	-2.00
9.00	-128.00	-2.00	-61.00	25.00	11.00	-22.00
2.00	-11.00	-46.00	-54.00	41.00	16.00	-23.00
-4.00	22.00	-149.00	-14.00	43.00	14.00	-18.00
-10.00	80.00	-153.00	68.00	29.00	12.00	-3.00
-8.00	110.00	-74.00	182.00	16.00	9.00	-2.00
6.00	111.00	25.00	174.00	8.00	13.00	-6.00
3.00	103.00	130.00	138.00	9.00	16.00	-9.00
1.00	57.00	131.00	40.00	10.00	18.00	-22.00
-2.00	36.00	29.00	-57.00	18.00	16.00	-36.00
0.00	-53.00	-50.00	-77.00	16.00	13.00	-32.00
1.00	-95.00	-116.00	-82.00	25.00	11.00	-11.00
4.00	-35.00	-104.00	-89.00	30.00	19.00	21.00
4.00	35.00	-41.00	-24.00	18.00	11.00	31.00
7.00	66.00	-61.00	-18.00	7.00	9.00	46.00
14.00	43.00	-19.00	-19.00	-2.00	16.00	56.00
19.00	9.00	25.00	35.00	-6.00	16.00	42.00
14.00	-17.00	-9.00	62.00	1.00	14.00	27.00
0.00	-41.00	-54.00	49.00	11.00	7.00	19.00
-5.00	-25.00	-16.00	-26.00	17.00	9.00	18.00
-14.00	-25.00	-4.00	-106.00	15.00	13.00	24.00
-16.00	-16.00	3.00	-69.00	13.00	15.00	45.00
-24.00	-2.00	57.00	-75.00	12.00	13.00	47.00
-17.00	9.00	52.00	27.00	10.00	9.00	33.00
-9.00	38.00	19.00	73.00	7.00	8.00	14.00
23.00	51.00	19.00	99.00	8.00	13.00	-4.00
29.00	82.00	37.00	78.00	5.00	9.00	-45.00
22.00	93.00	44.00	24.00	7.00	-20.00	-83.00
19.00	38.00	49.00	39.00	8.00	0.00	-69.00
13.00	33.00	22.00	37.00	11.00	2.00	-35.00
2.00	25.00	-7.00	-35.00	13.00	3.00	-13.00
-2.00	42.00	16.00	-80.00	10.00	7.00	-4.00
-8.00	110.00	16.00	13.00	13.00	6.00	-5.00
-6.00	81.00	-6.00	79.00	7.00	5.00	-9.00
-10.00	36.00	56.00	83.00	4.00	12.00	-11.00
-3.00	51.00	131.00	80.00	14.00	14.00	-7.00
-6.00	70.00	106.00	77.00	21.00	7.00	-4.00
-5.00	119.00	56.00	33.00	27.00	9.00	-1.00
0.00	75.00	26.00	-13.00	30.00	7.00	12.00
6.00	-70.00	23.00	-71.00	38.00	1.00	36.00
0.00	-145.00	-88.00	-104.00	47.00	-3.00	46.00
2.00	-90.00	-169.00	-102.00	18.00	-5.00	63.00
3.00	-42.00	-73.00	-19.00	4.00	9.00	71.00
7.00	-32.00	-13.00	43.00	5.00	17.00	60.00
5.00	-30.00	26.00	74.00	7.00	21.00	31.00
8.00	-34.00	46.00	91.00	22.00	20.00	-19.00
12.00	-36.00	51.00	89.00	21.00	22.00	-91.00
10.00	1.00	88.00	79.00	24.00	21.00	-82.00
2.00	25.00	75.00	29.00	21.00	16.00	-56.00
-6.00	63.00	29.00	-95.00	21.00	19.00	-43.00
-14.00	105.00	22.00	-80.00	6.00	13.00	-32.00
-11.00	89.00	80.00	-12.00	-10.00	11.00	-4.00
-16.00	16.00	81.00	17.00	-14.00	17.00	25.00
-21.00	-70.00	27.00	3.00	-20.00	20.00	29.00
-22.00	-58.00	-30.00	23.00	-23.00	18.00	28.00
-16.00	-38.00	-44.00	82.00	-31.00	8.00	16.00
-10.00	-21.00	-60.00	93.00	-25.00	14.00	6.00
-6.00	20.00	-92.00	90.00	-20.00	14.00	5.00
7.00	27.00	-71.00	44.00	-12.00	14.00	12.00
6.00	42.00	-19.00	25.00	-2.00	16.00	14.00
11.00	41.00	20.00	4.00	4.00	14.00	19.00
19.00	44.00	15.00	-184.00	16.00	15.00	22.00
20.00	42.00	-15.00	-195.00	3.00	1.00	25.00
13.00	48.00	70.00	-81.00	-22.00	-3.00	22.00
18.00	28.00	71.00	-41.00	-10.00	4.00	12.00
21.00	2.00	3.00	-13.00	2.00	13.00	-12.00
16.00	-48.00	-12.00	-14.00	19.00	24.00	-32.00
7.00	-4.00	25.00	4.00	35.00	16.00	-11.00
5.00	40.00	-16.00	47.00	49.00	10.00	2.00
5.00	83.00	-58.00	58.00	59.00	8.00	6.00
-3.00	72.00	-41.00	64.00	61.00	10.00	6.00
-6.00	-30.00	-60.00	88.00	65.00	8.00	19.00
-14.00	-60.00	-53.00	73.00	56.00	5.00	40.00
-25.00	-14.00	-82.00	47.00	41.00	5.00	34.00
-17.00	4.00	11.00	63.00	39.00	6.00	6.00
-2.00	29.00	84.00	84.00	45.00	4.00	-1.00
5.00	33.00	86.00	32.00	36.00	6.00	-10.00
20.00	25.00	-11.00	-64.00	34.00	8.00	-31.00
34.00	22.00	-91.00	-96.00	28.00	9.00	-39.00
22.00	11.00	-16.00	61.00	13.00	8.00	-26.00
6.00	36.00	7.00	-3.00	-4.00	6.00	-14.00
-3.00	13.00	-39.00	-42.00	-14.00	8.00	6.00
-11.00	-2.00	-59.00	-39.00	-17.00	8.00	8.00
-4.00	38.00	-78.00	-62.00	-18.00	6.00	2.00
-3.00	20.00	-125.00	-70.00	-10.00	7.00	-1.00
-3.00	-4.00	-106.00	-148.00	-6.00	7.00	-5.00
-2.00	24.00	67.00	-50.00	0.00	3.00	-8.00
2.00	56.00	121.00	42.00	7.00	4.00	-9.00
0.00	46.00	90.00	101.00	5.00	7.00	3.00
0.00	72.00	69.00	132.00	0.00	9.00	9.00
-1.00	65.00	21.00	104.00	7.00	15.00	6.00
1.00	36.00	-52.00	44.00	7.00	15.00	-4.00
3.00	39.00	-62.00	-60.00	12.00	13.00	-9.00
-4.00	20.00	14.00	-81.00	14.00	15.00	-8.00
-8.00	-22.00	93.00	-8.00	8.00	8.00	-5.00
-4.00	-33.00	86.00	47.00	4.00	8.00	-3.00
-11.00	-73.00	71.00	54.00	3.00	12.00	15.00
-7.00	-69.00	67.00	48.00	2.00	9.00	26.00
-5.00	-37.00	63.00	37.00	1.00	9.00	19.00
-2.00	18.00	36.00	7.00	3.00	10.00	19.00
6.00	48.00	17.00	-19.00	-11.00	9.00	18.00
8.00	65.00	39.00	-22.00	-17.00	10.00	13.00
1.00	75.00	26.00	-74.00	-7.00	11.00	11.00
-12.00	73.00	-1.00	-8.00	11.00	10.00	8.00
-12.00	36.00	-7.00	4.00	21.00	13.00	0.00
-11.00	-26.00	-15.00	12.00	32.00	12.00	-10.00
-4.00	-92.00	38.00	38.00	45.00	13.00	-12.00
-3.00	-94.00	149.00	52.00	51.00	16.00	-16.00
1.00	-63.00	135.00	80.00	50.00	16.00	-22.00
-1.00	-26.00	57.00	83.00	43.00	8.00	-14.00
-14.00	51.00	-42.00	78.00	29.00	12.00	24.00
-17.00	67.00	-134.00	50.00	22.00	18.00	32.00
-6.00	49.00	-159.00	31.00	16.00	14.00	29.00
2.00	33.00	-109.00	20.00	16.00	10.00	36.00
21.00	16.00	-43.00	-7.00	15.00	10.00	50.00
33.00	16.00	-40.00	-46.00	23.00	-23.00	22.00
31.00	-2.00	-9.00	-44.00	16.00	-9.00	-23.00
18.00	-20.00	0.00	-44.00	8.00	-1.00	-55.00
9.00	-40.00	7.00	-53.00	3.00	7.00	-35.00
4.00	1.00	45.00	13.00	1.00	16.00	-51.00
-14.00	70.00	-16.00	28.00	-1.00	16.00	-84.00
-21.00	85.00	-59.00	10.00	-5.00	16.00	-61.00
-23.00	-1.00	-40.00	8.00	-10.00	10.00	-35.00
-19.00	-46.00	-38.00	30.00	-8.00	12.00	-32.00
-18.00	-9.00	-46.00	45.00	-4.00	15.00	-23.00
-11.00	27.00	-35.00	38.00	5.00	12.00	-15.00
3.00	28.00	-4.00	20.00	9.00	7.00	-4.00
14.00	-2.00	80.00	11.00	0.00	6.00	2.00
9.00	-21.00	75.00	-8.00	2.00	9.00	9.00
10.00	13.00	29.00	-54.00	10.00	11.00	34.00
11.00	79.00	57.00	-24.00	5.00	13.00	35.00
11.00	134.00	16.00	33.00	6.00	13.00	29.00
7.00	94.00	-29.00	34.00	7.00	18.00	23.00
3.00	64.00	-27.00	16.00	12.00	21.00	18.00
7.00	114.00	11.00	17.00	11.00	14.00	15.00
6.00	115.00	27.00	36.00	8.00	12.00	11.00
5.00	99.00	46.00	62.00	7.00	14.00	1.00
5.00	31.00	71.00	72.00	12.00	12.00	-5.00
6.00	-83.00	155.00	99.00	16.00	13.00	-5.00
5.00	-126.00	207.00	37.00	21.00	26.00	3.00
1.00	-63.00	194.00	3.00	23.00	26.00	8.00
3.00	-1.00	115.00	68.00	23.00	30.00	9.00
5.00	-12.00	-38.00	51.00	17.00	20.00	8.00
2.00	-39.00	-172.00	-3.00	2.00	0.00	12.00
-1.00	-21.00	-280.00	-194.00	10.00	2.00	18.00
-5.00	-8.00	-230.00	-237.00	25.00	7.00	10.00
3.00	21.00	-68.00	33.00	33.00	7.00	5.00
2.00	60.00	73.00	127.00	22.00	6.00	18.00
6.00	58.00	71.00	172.00	7.00	6.00	8.00
11.00	24.00	51.00	135.00	-5.00	6.00	-9.00
13.00	-46.00	-3.00	55.00	-8.00	4.00	-10.00
6.00	-78.00	-71.00	-48.00	-8.00	0.00	1.00
-8.00	-58.00	-141.00	-236.00	-1.00	1.00	11.00
-15.00	-32.00	-196.00	-306.00	7.00	0.00	21.00
-18.00	1.00	-35.00	-129.00	20.00	0.00	34.00
-10.00	13.00	14.00	11.00	28.00	6.00	27.00
-4.00	60.00	-155.00	-5.00	34.00	10.00	5.00
2.00	87.00	-126.00	-48.00	27.00	5.00	4.00
4.00	82.00	-28.00	-24.00	29.00	3.00	9.00
4.00	87.00	40.00	-21.00	30.00	1.00	3.00
4.00	24.00	53.00	-23.00	28.00	7.00	2.00
3.00	-16.00	94.00	-66.00	24.00	4.00	1.00
2.00	8.00	122.00	-36.00	18.00	-2.00	1.00
1.00	71.00	141.00	32.00	17.00	6.00	-2.00
4.00	74.00	119.00	86.00	8.00	15.00	-1.00
1.00	11.00	46.00	97.00	2.00	9.00	-3.00
-6.00	-71.00	23.00	71.00	0.00	6.00	3.00
-4.00	-92.00	33.00	37.00	6.00	15.00	5.00
5.00	-56.00	75.00	51.00	7.00	24.00	10.00
10.00	38.00	70.00	70.00	11.00	28.00	17.00
8.00	130.00	60.00	76.00	3.00	16.00	12.00
3.00	106.00	65.00	106.00	17.00	16.00	3.00
-5.00	37.00	66.00	108.00	21.00	14.00	6.00
-13.00	-16.00	-3.00	109.00	17.00	17.00	5.00
-22.00	-31.00	-149.00	62.00	10.00	12.00	-6.00
-21.00	-1.00	-184.00	2.00	14.00	5.00	-8.00
-16.00	40.00	-130.00	-58.00	12.00	3.00	2.00
-11.00	63.00	-12.00	-26.00	-4.00	6.00	11.00
4.00	35.00	115.00	38.00	1.00	8.00	7.00
15.00	41.00	129.00	24.00	15.00	10.00	5.00
14.00	44.00	142.00	57.00	25.00	8.00	3.00
8.00	40.00	132.00	63.00	31.00	5.00	-1.00
-1.00	-17.00	28.00	14.00	36.00	6.00	-8.00
3.00	-119.00	-106.00	-43.00	37.00	7.00	-12.00
11.00	-84.00	-57.00	-48.00	29.00	3.00	-9.00
12.00	6.00	46.00	-71.00	31.00	7.00	-21.00
12.00	28.00	102.00	-35.00	36.00	11.00	-8.00
3.00	-2.00	46.00	3.00	10.00	10.00	0.00
6.00	-20.00	37.00	-8.00	4.00	14.00	10.00
-5.00	-17.00	10.00	-2.00	-5.00	-7.00	31.00
-2.00	13.00	18.00	27.00	-13.00	-10.00	39.00
2.00	92.00	42.00	61.00	-6.00	8.00	30.00
4.00	105.00	-66.00	109.00	1.00	11.00	18.00
0.00	104.00	-110.00	88.00	5.00	8.00	12.00
9.00	10.00	-147.00	84.00	14.00	12.00	-3.00
14.00	-55.00	-118.00	10.00	27.00	13.00	-52.00
13.00	-41.00	-56.00	-159.00	32.00	7.00	-80.00
6.00	-57.00	-60.00	-178.00	21.00	4.00	-29.00
9.00	-28.00	-57.00	-116.00	12.00	7.00	2.00
8.00	-8.00	-58.00	-57.00	5.00	8.00	16.00
4.00	6.00	-70.00	-19.00	-6.00	10.00	4.00
0.00	51.00	7.00	16.00	-8.00	9.00	-7.00
9.00	48.00	41.00	64.00	-11.00	7.00	0.00
8.00	74.00	101.00	106.00	-11.00	8.00	-5.00
6.00	112.00	111.00	123.00	-10.00	15.00	-20.00
7.00	105.00	67.00	99.00	-12.00	23.00	-38.00
-9.00	47.00	62.00	60.00	-1.00	25.00	-37.00
-12.00	-68.00	35.00	7.00	10.00	24.00	-15.00
-8.00	-154.00	21.00	-61.00	22.00	8.00	5.00
-16.00	-120.00	4.00	-164.00	36.00	12.00	12.00
-16.00	-61.00	-47.00	-113.00	43.00	22.00	17.00
-13.00	-20.00	-77.00	35.00	35.00	22.00	15.00
-6.00	38.00	-121.00	71.00	22.00	19.00	7.00
-2.00	76.00	-48.00	77.00	13.00	13.00	-8.00
-2.00	40.00	-12.00	69.00	9.00	5.00	-22.00
-2.00	54.00	22.00	55.00	8.00	5.00	-23.00
3.00	73.00	65.00	19.00	13.00	10.00	-9.00
9.00	69.00	85.00	-28.00	19.00	11.00	6.00
6.00	51.00	128.00	-6.00	26.00	4.00	46.00
7.00	50.00	191.00	62.00	27.00	20.00	50.00
11.00	61.00	91.00	91.00	27.00	25.00	44.00
2.00	26.00	52.00	147.00	27.00	14.00	61.00
-7.00	-4.00	-44.00	126.00	16.00	13.00	46.00
-9.00	6.00	-89.00	58.00	9.00	14.00	4.00
-8.00	26.00	-115.00	-58.00	7.00	12.00	-27.00
-8.00	81.00	-52.00	-157.00	0.00	0.00	-31.00
0.00	45.00	-10.00	-226.00	-3.00	0.00	-21.00
-1.00	-17.00	-21.00	-86.00	5.00	2.00	-13.00
3.00	-31.00	11.00	-30.00	8.00	2.00	-13.00
0.00	-27.00	18.00	-12.00	10.00	4.00	-13.00
0.00	-57.00	-2.00	39.00	14.00	4.00	-4.00
-13.00	-39.00	-20.00	53.00	11.00	2.00	2.00
-18.00	-23.00	-33.00	3.00	14.00	-4.00	8.00
-20.00	19.00	-47.00	-92.00	25.00	-1.00	30.00
-10.00	96.00	-18.00	-30.00	28.00	10.00	23.00
-7.00	190.00	-30.00	-49.00	23.00	14.00	11.00
-3.00	211.00	-29.00	-106.00	18.00	20.00	4.00
4.00	155.00	-10.00	-64.00	3.00	6.00	-5.00
20.00	-14.00	-10.00	-19.00	1.00	6.00	8.00
22.00	-121.00	-33.00	21.00	6.00	10.00	21.00
19.00	-168.00	-55.00	40.00	15.00	6.00	13.00
12.00	-164.00	-15.00	54.00	25.00	12.00	10.00
15.00	-98.00	26.00	66.00	27.00	8.00	2.00
15.00	-26.00	93.00	55.00	26.00	8.00	-16.00
22.00	-6.00	161.00	53.00	16.00	8.00	-18.00
10.00	-2.00	176.00	36.00	12.00	9.00	-12.00
4.00	3.00	163.00	35.00	2.00	12.00	-18.00
4.00	9.00	92.00	30.00	-7.00	12.00	-12.00
1.00	69.00	67.00	43.00	-7.00	7.00	-4.00
1.00	66.00	43.00	55.00	2.00	12.00	10.00
-8.00	32.00	-40.00	52.00	19.00	17.00	24.00
-4.00	35.00	-108.00	67.00	18.00	19.00	25.00
-3.00	9.00	-114.00	75.00	18.00	15.00	14.00
-6.00	-25.00	-101.00	72.00	18.00	17.00	-4.00
-6.00	-35.00	-21.00	49.00	13.00	17.00	-19.00
-6.00	-15.00	19.00	17.00	10.00	22.00	-34.00
1.00	32.00	111.00	57.00	9.00	23.00	-23.00
7.00	107.00	104.00	5.00	7.00	16.00	-18.00
11.00	103.00	-7.00	47.00	6.00	18.00	12.00
3.00	62.00	-72.00	59.00	4.00	18.00	30.00
-1.00	24.00	-141.00	20.00	-3.00	15.00	25.00
7.00	8.00	-157.00	-5.00	-21.00	3.00	24.00
2.00	41.00	-82.00	-93.00	-23.00	-26.00	38.00
-2.00	33.00	-3.00	-111.00	-13.00	-5.00	37.00
-13.00	-68.00	75.00	-23.00	4.00	2.00	26.00
-9.00	-63.00	83.00	-20.00	27.00	8.00	-15.00
1.00	11.00	63.00	-26.00	47.00	8.00	-78.00
1.00	37.00	-5.00	27.00	49.00	8.00	-93.00
4.00	11.00	-2.00	40.00	47.00	8.00	-53.00
8.00	-8.00	32.00	50.00	43.00	14.00	-27.00
7.00	-11.00	20.00	-7.00	36.00	18.00	-22.00
8.00	9.00	-1.00	-12.00	24.00	14.00	-14.00
-5.00	75.00	-25.00	-24.00	18.00	9.00	-5.00
-10.00	110.00	-26.00	-45.00	22.00	1.00	1.00
-7.00	86.00	-82.00	-63.00	31.00	-3.00	-5.00
-4.00	93.00	-77.00	-77.00	28.00	-2.00	2.00
6.00	81.00	-8.00	-62.00	25.00	-3.00	25.00
-2.00	51.00	28.00	9.00	19.00	-2.00	33.00
-8.00	-1.00	1.00	-2.00	17.00	9.00	25.00
-9.00	-112.00	-39.00	6.00	14.00	14.00	9.00
4.00	-102.00	-48.00	85.00	5.00	23.00	2.00
5.00	-49.00	3.00	99.00	-6.00	17.00	-8.00
1.00	-18.00	34.00	106.00	-6.00	12.00	-8.00
0.00	18.00	24.00	103.00	-2.00	9.00	-10.00
2.00	32.00	51.00	79.00	4.00	12.00	0.00
3.00	34.00	51.00	53.00	6.00	18.00	12.00
-2.00	2.00	35.00	-36.00	5.00	16.00	18.00
4.00	-14.00	-29.00	-183.00	2.00	16.00	17.00
7.00	-4.00	-23.00	-80.00	-5.00	6.00	2.00
8.00	-18.00	39.00	-53.00	-13.00	4.00	-2.00
13.00	-25.00	116.00	-60.00	-6.00	13.00	-9.00
13.00	-23.00	107.00	-19.00	5.00	21.00	-15.00
0.00	56.00	93.00	12.00	8.00	21.00	0.00
-9.00	127.00	43.00	21.00	6.00	14.00	16.00
-6.00	91.00	-56.00	42.00	8.00	10.00	11.00
-5.00	54.00	-110.00	83.00	-2.00	3.00	6.00
-7.00	34.00	-92.00	95.00	0.00	4.00	1.00
-3.00	27.00	-92.00	73.00	0.00	5.00	-12.00
-13.00	-18.00	-119.00	68.00	2.00	3.00	-19.00
-15.00	-74.00	-54.00	66.00	17.00	9.00	-20.00
-16.00	-57.00	26.00	0.00	28.00	13.00	-5.00
-13.00	1.00	135.00	-52.00	36.00	9.00	18.00
-8.00	59.00	81.00	-47.00	34.00	8.00	10.00
-8.00	5.00	-13.00	31.00	30.00	11.00	11.00
-6.00	-20.00	11.00	49.00	24.00	11.00	4.00
-4.00	-45.00	7.00	20.00	27.00	10.00	2.00
2.00	19.00	-16.00	3.00	27.00	18.00	3.00
8.00	70.00	-39.00	-25.00	19.00	12.00	5.00
3.00	38.00	51.00	-60.00	2.00	5.00	3.00
-4.00	-11.00	73.00	-150.00	-2.00	5.00	5.00
-13.00	-25.00	32.00	-136.00	1.00	10.00	6.00
-15.00	-22.00	-29.00	-30.00	-1.00	8.00	6.00
-9.00	-9.00	-49.00	46.00	7.00	13.00	0.00
-4.00	-10.00	-51.00	79.00	13.00	17.00	1.00
0.00	-12.00	-55.00	80.00	15.00	15.00	16.00
0.00	1.00	-13.00	150.00	15.00	10.00	25.00
-6.00	37.00	29.00	164.00	14.00	9.00	21.00
-21.00	62.00	97.00	132.00	14.00	7.00	30.00
-25.00	60.00	160.00	55.00	15.00	16.00	28.00
-15.00	44.00	185.00	-2.00	25.00	22.00	5.00
-13.00	6.00	106.00	-110.00	18.00	23.00	-21.00
1.00	19.00	49.00	-99.00	14.00	14.00	-16.00
12.00	64.00	1.00	-162.00	16.00	14.00	2.00
8.00	114.00	-65.00	-38.00	15.00	12.00	29.00
16.00	120.00	-105.00	-31.00	16.00	10.00	31.00
26.00	169.00	-126.00	-60.00	28.00	8.00	5.00
39.00	162.00	-85.00	-21.00	8.00	3.00	-22.00
45.00	114.00	63.00	49.00	-2.00	1.00	-22.00
43.00	62.00	67.00	93.00	0.00	8.00	-23.00
51.00	-82.00	-15.00	101.00	6.00	12.00	-49.00
58.00	-169.00	-41.00	107.00	9.00	11.00	-79.00
52.00	-138.00	11.00	97.00	15.00	15.00	-40.00
48.00	-79.00	4.00	61.00	21.00	16.00	-3.00
54.00	-57.00	-12.00	-53.00	22.00	10.00	2.00
61.00	-46.00	-13.00	-170.00	25.00	10.00	-6.00
67.00	-15.00	5.00	-49.00	27.00	11.00	-14.00
69.00	24.00	32.00	75.00	22.00	7.00	-7.00
70.00	66.00	-41.00	83.00	6.00	-8.00	-5.00
65.00	54.00	-7.00	71.00	0.00	-19.00	11.00
65.00	45.00	-37.00	21.00	4.00	5.00	16.00
52.00	35.00	-23.00	-60.00	0.00	6.00	8.00
55.00	42.00	61.00	-71.00	-2.00	7.00	4.00
65.00	-32.00	54.00	-45.00	-1.00	3.00	0.00
60.00	-102.00	72.00	8.00	0.00	7.00	3.00
55.00	-71.00	109.00	49.00	13.00	11.00	-3.00
45.00	-5.00	74.00	62.00	26.00	13.00	-6.00
20.00	-4.00	34.00	67.00	24.00	14.00	17.00
12.00	26.00	4.00	53.00	27.00	15.00	14.00
3.00	8.00	-50.00	24.00	25.00	11.00	22.00
-12.00	10.00	-101.00	-20.00	23.00	5.00	22.00
-20.00	29.00	-53.00	-53.00	7.00	-9.00	15.00
-35.00	19.00	-14.00	-28.00	-5.00	-6.00	7.00
-53.00	34.00	-22.00	-7.00	-9.00	3.00	4.00
-61.00	31.00	-32.00	12.00	-4.00	7.00	8.00
-81.00	44.00	-6.00	22.00	0.00	8.00	7.00
-89.00	41.00	48.00	76.00	6.00	14.00	12.00
-98.00	9.00	128.00	125.00	7.00	7.00	12.00
-103.00	-8.00	103.00	81.00	3.00	14.00	11.00
-109.00	-2.00	74.00	-33.00	8.00	21.00	7.00
-109.00	-18.00	-24.00	-20.00	2.00	26.00	3.00
-110.00	17.00	-157.00	35.00	-11.00	26.00	6.00
-110.00	28.00	-293.00	-31.00	-17.00	17.00	11.00
-107.00	89.00	-282.00	-93.00	-8.00	13.00	11.00
-96.00	128.00	-200.00	-80.00	0.00	13.00	6.00
-95.00	66.00	-63.00	-29.00	12.00	13.00	1.00
-90.00	25.00	-11.00	-68.00	27.00	14.00	-5.00
-80.00	12.00	7.00	-114.00	43.00	18.00	-7.00
-74.00	0.00	70.00	-39.00	52.00	15.00	2.00
-78.00	9.00	9.00	-33.00	65.00	10.00	12.00
-68.00	-81.00	75.00	-21.00	65.00	10.00	9.00
-48.00	-140.00	90.00	13.00	44.00	10.00	7.00
-28.00	-108.00	74.00	26.00	29.00	11.00	2.00
-9.00	-26.00	66.00	48.00	12.00	9.00	-4.00
17.00	26.00	76.00	49.00	-4.00	4.00	4.00
16.00	85.00	65.00	27.00	-14.00	15.00	19.00
6.00	60.00	28.00	24.00	-16.00	15.00	36.00
9.00	7.00	31.00	18.00	-11.00	9.00	19.00
13.00	-35.00	47.00	15.00	-7.00	13.00	-6.00
12.00	-18.00	87.00	38.00	-6.00	18.00	-2.00
2.00	-5.00	86.00	54.00	-7.00	14.00	-5.00
5.00	41.00	7.00	24.00	-11.00	5.00	-19.00
7.00	111.00	-9.00	10.00	-7.00	5.00	-30.00
9.00	84.00	27.00	6.00	0.00	5.00	-27.00
14.00	50.00	76.00	-2.00	5.00	7.00	-15.00
29.00	33.00	133.00	-18.00	15.00	7.00	-12.00
28.00	14.00	104.00	-8.00	17.00	1.00	-39.00
34.00	19.00	66.00	38.00	18.00	6.00	-42.00
38.00	11.00	-32.00	75.00	20.00	4.00	-21.00
49.00	3.00	-137.00	81.00	20.00	6.00	15.00
48.00	31.00	-204.00	73.00	20.00	10.00	55.00
