
-60.00	78.00	13.00	-343.00	20.00	63.00	-36.00
-53.00	41.00	3.00	-161.00	31.00	76.00	-38.00
-35.00	10.00	-128.00	-23.00	42.00	60.00	-9.00
-21.00	-6.00	-184.00	53.00	45.00	53.00	-22.00
-12.00	-34.00	-92.00	74.00	46.00	60.00	-28.00
-8.00	-63.00	12.00	71.00	40.00	102.00	-20.00
-8.00	-56.00	82.00	52.00	22.00	-7.00	-25.00
-4.00	-44.00	141.00	64.00	12.00	-18.00	-3.00
5.00	-24.00	142.00	69.00	7.00	-29.00	22.00
12.00	-15.00	133.00	86.00	12.00	-110.00	18.00
25.00	-2.00	201.00	44.00	20.00	-136.00	23.00
33.00	44.00	164.00	9.00	20.00	-108.00	2.00
37.00	61.00	81.00	15.00	8.00	18.00	-24.00
32.00	36.00	105.00	34.00	22.00	39.00	-15.00
22.00	-7.00	242.00	58.00	26.00	29.00	-13.00
10.00	-36.00	315.00	99.00	34.00	14.00	-10.00
3.00	-44.00	134.00	107.00	31.00	7.00	-16.00
12.00	-2.00	-143.00	88.00	17.00	6.00	-11.00
12.00	23.00	-253.00	51.00	-2.00	17.00	-19.00
9.00	43.00	-305.00	0.00	-8.00	10.00	1.00
8.00	61.00	-320.00	-98.00	5.00	-2.00	33.00
-13.00	78.00	-98.00	-212.00	8.00	14.00	37.00
-23.00	49.00	14.00	-166.00	6.00	22.00	14.00
-1.00	2.00	136.00	-51.00	-4.00	15.00	28.00
10.00	-45.00	98.00	28.00	-20.00	-23.00	62.00
11.00	-88.00	7.00	70.00	-19.00	7.00	31.00
31.00	-109.00	-34.00	81.00	-13.00	13.00	26.00
50.00	-176.00	-11.00	104.00	-10.00	29.00	30.00
41.00	-185.00	44.00	88.00	-8.00	74.00	0.00
29.00	-179.00	288.00	87.00	4.00	87.00	-4.00
24.00	-97.00	414.00	55.00	17.00	85.00	-11.00
30.00	104.00	158.00	27.00	16.00	78.00	-16.00
22.00	228.00	-46.00	-10.00	8.00	58.00	-29.00
12.00	279.00	9.00	10.00	-11.00	23.00	-12.00
2.00	333.00	139.00	-34.00	-34.00	-38.00	-28.00
-45.00	387.00	-7.00	-148.00	-14.00	-57.00	-36.00
-74.00	370.00	-262.00	-55.00	10.00	-55.00	-31.00
-81.00	300.00	-284.00	-24.00	13.00	-15.00	-16.00
-92.00	207.00	-276.00	-64.00	17.00	1.00	-7.00
-102.00	114.00	-261.00	-48.00	20.00	1.00	-8.00
-96.00	49.00	-289.00	59.00	17.00	-3.00	6.00
-100.00	0.00	-242.00	81.00	9.00	-13.00	1.00
-95.00	-42.00	-179.00	166.00	16.00	-27.00	15.00
-70.00	-64.00	-67.00	130.00	29.00	-13.00	23.00
-42.00	-69.00	207.00	60.00	17.00	-13.00	16.00
-13.00	-81.00	518.00	-25.00	11.00	-11.00	-12.00
8.00	-58.00	368.00	-88.00	5.00	25.00	-32.00
14.00	-45.00	198.00	-144.00	8.00	36.00	-38.00
21.00	-30.00	109.00	-102.00	21.00	30.00	-1.00
30.00	-35.00	18.00	-38.00	16.00	40.00	-12.00
41.00	0.00	-100.00	-89.00	0.00	61.00	-23.00
33.00	15.00	-304.00	-146.00	6.00	59.00	-33.00
43.00	-15.00	-206.00	-55.00	16.00	48.00	-36.00
49.00	-78.00	-145.00	67.00	12.00	-14.00	-24.00
58.00	-90.00	-43.00	71.00	-5.00	-78.00	-8.00
55.00	-96.00	26.00	131.00	3.00	-94.00	-7.00
58.00	-100.00	96.00	126.00	26.00	-23.00	-10.00
56.00	-88.00	149.00	150.00	34.00	26.00	-9.00
57.00	-89.00	111.00	146.00	28.00	24.00	12.00
42.00	-113.00	4.00	55.00	11.00	13.00	43.00
25.00	-110.00	-141.00	-32.00	-1.00	-4.00	54.00
11.00	-87.00	-62.00	-146.00	-10.00	-10.00	39.00
-16.00	-72.00	-134.00	-163.00	4.00	10.00	33.00
-27.00	-72.00	48.00	-110.00	10.00	21.00	38.00
-23.00	-9.00	95.00	-25.00	19.00	75.00	16.00
-13.00	69.00	198.00	34.00	14.00	64.00	20.00
-9.00	126.00	315.00	50.00	12.00	49.00	35.00
13.00	175.00	337.00	23.00	2.00	6.00	34.00
15.00	220.00	198.00	-56.00	12.00	41.00	16.00
3.00	183.00	-38.00	-38.00	-8.00	31.00	5.00
0.00	108.00	-255.00	72.00	-34.00	37.00	-13.00
-13.00	43.00	-457.00	68.00	-17.00	22.00	-26.00
-15.00	-1.00	-481.00	43.00	6.00	-31.00	-14.00
-25.00	-44.00	-298.00	-47.00	-20.00	-48.00	-2.00
-26.00	-48.00	-120.00	-105.00	-18.00	-91.00	-22.00
-23.00	-31.00	-21.00	-87.00	17.00	-67.00	-25.00
-14.00	-20.00	139.00	-68.00	43.00	-44.00	-21.00
10.00	23.00	198.00	-42.00	49.00	5.00	-35.00
24.00	87.00	183.00	-18.00	36.00	20.00	-15.00
37.00	171.00	61.00	-17.00	37.00	13.00	6.00
46.00	231.00	28.00	14.00	32.00	-6.00	9.00
47.00	226.00	162.00	19.00	44.00	0.00	-26.00
39.00	148.00	381.00	77.00	58.00	14.00	-45.00
23.00	64.00	517.00	131.00	19.00	10.00	-22.00
1.00	-11.00	384.00	235.00	-19.00	-15.00	18.00
-16.00	-64.00	180.00	260.00	-10.00	3.00	25.00
-31.00	-58.00	-37.00	215.00	11.00	32.00	11.00
-43.00	-39.00	-318.00	129.00	22.00	30.00	2.00
-20.00	-20.00	-419.00	-46.00	21.00	28.00	-2.00
-11.00	-28.00	-534.00	-123.00	5.00	24.00	-1.00
3.00	-29.00	-345.00	-141.00	2.00	8.00	-23.00
11.00	-36.00	-246.00	-66.00	17.00	8.00	-31.00
7.00	-49.00	-96.00	-47.00	15.00	15.00	-14.00
15.00	-57.00	10.00	-66.00	10.00	35.00	-3.00
15.00	-64.00	95.00	-115.00	12.00	46.00	-3.00
4.00	-64.00	93.00	-113.00	26.00	50.00	5.00
-19.00	-52.00	56.00	-115.00	-4.00	9.00	16.00
-48.00	-52.00	-9.00	-57.00	-57.00	-51.00	-5.00
-58.00	-40.00	12.00	1.00	-48.00	-61.00	23.00
-59.00	-20.00	67.00	5.00	-10.00	-22.00	40.00
-66.00	-34.00	99.00	23.00	7.00	24.00	-1.00
-57.00	-70.00	76.00	46.00	9.00	22.00	-19.00
-53.00	-119.00	28.00	68.00	9.00	8.00	-10.00
-53.00	-136.00	-15.00	67.00	7.00	-11.00	3.00
-38.00	-152.00	-27.00	55.00	3.00	-24.00	27.00
-31.00	-153.00	-36.00	52.00	-1.00	-21.00	-4.00
-22.00	-122.00	53.00	48.00	-5.00	-12.00	-37.00
-10.00	-49.00	246.00	60.00	-4.00	40.00	-18.00
19.00	40.00	229.00	74.00	8.00	77.00	19.00
40.00	81.00	120.00	97.00	19.00	81.00	26.00
73.00	107.00	46.00	146.00	18.00	62.00	8.00
81.00	110.00	25.00	202.00	16.00	21.00	-8.00
73.00	92.00	-142.00	179.00	30.00	-15.00	-4.00
49.00	113.00	-262.00	135.00	46.00	-56.00	20.00
27.00	122.00	-222.00	55.00	38.00	-14.00	-15.00
32.00	91.00	-48.00	-47.00	24.00	19.00	-36.00
30.00	62.00	40.00	-171.00	-15.00	-2.00	-26.00
21.00	81.00	-8.00	-298.00	-21.00	-19.00	-3.00
-4.00	81.00	124.00	-300.00	-38.00	-23.00	4.00
-9.00	65.00	240.00	-185.00	-30.00	-43.00	-12.00
-10.00	20.00	147.00	-3.00	8.00	-20.00	-10.00
-2.00	-73.00	-28.00	101.00	30.00	33.00	3.00
-10.00	-144.00	-65.00	170.00	34.00	46.00	16.00
-11.00	-140.00	-87.00	193.00	30.00	-22.00	19.00
8.00	-97.00	-133.00	182.00	32.00	5.00	5.00
-6.00	-37.00	-233.00	126.00	39.00	27.00	12.00
-18.00	56.00	-207.00	106.00	24.00	19.00	17.00
-14.00	173.00	-179.00	-4.00	15.00	7.00	9.00
-22.00	273.00	-133.00	-108.00	27.00	12.00	-4.00
-38.00	341.00	-81.00	-209.00	18.00	39.00	-21.00
-46.00	315.00	21.00	-306.00	10.00	80.00	-14.00
-33.00	258.00	157.00	-335.00	5.00	57.00	-10.00
-32.00	204.00	151.00	-268.00	-10.00	30.00	5.00
-28.00	143.00	212.00	-136.00	-23.00	-1.00	4.00
-13.00	90.00	344.00	23.00	-12.00	11.00	2.00
-1.00	54.00	678.00	99.00	-5.00	-5.00	14.00
18.00	20.00	522.00	214.00	1.00	15.00	1.00
29.00	-29.00	147.00	243.00	22.00	14.00	-29.00
28.00	-74.00	-128.00	204.00	34.00	2.00	-29.00
10.00	-129.00	-373.00	160.00	31.00	-25.00	-28.00
-10.00	-157.00	-553.00	83.00	13.00	-57.00	-21.00
-16.00	-112.00	-527.00	25.00	-16.00	6.00	3.00
-20.00	-115.00	-322.00	-11.00	-27.00	22.00	-15.00
-14.00	-152.00	-54.00	-97.00	-14.00	14.00	-16.00
9.00	-212.00	290.00	-183.00	3.00	57.00	-16.00
15.00	-241.00	373.00	-206.00	10.00	27.00	-4.00
19.00	-192.00	345.00	-186.00	26.00	20.00	2.00
22.00	-117.00	189.00	-117.00	36.00	-23.00	-6.00
19.00	-71.00	12.00	-88.00	38.00	-73.00	-13.00
20.00	-23.00	-58.00	-41.00	46.00	-58.00	-42.00
17.00	51.00	-173.00	-57.00	44.00	-25.00	-63.00
5.00	97.00	-278.00	35.00	40.00	13.00	-32.00
-4.00	84.00	-269.00	99.00	24.00	1.00	71.00
-9.00	95.00	-152.00	192.00	11.00	14.00	56.00
-15.00	104.00	-144.00	220.00	5.00	27.00	94.00
-26.00	105.00	-147.00	207.00	-9.00	41.00	87.00
-13.00	155.00	-134.00	158.00	-13.00	57.00	41.00
9.00	140.00	-28.00	75.00	-9.00	92.00	23.00
10.00	108.00	159.00	-34.00	-19.00	126.00	41.00
5.00	58.00	202.00	-73.00	-35.00	47.00	40.00
2.00	-14.00	225.00	-111.00	-41.00	-24.00	29.00
-3.00	-62.00	215.00	-100.00	-19.00	-69.00	11.00
2.00	-77.00	58.00	2.00	2.00	-121.00	9.00
15.00	-81.00	-89.00	53.00	15.00	-104.00	-22.00
20.00	-89.00	-115.00	84.00	16.00	-97.00	-38.00
16.00	-72.00	-99.00	84.00	-4.00	-44.00	-37.00
5.00	-3.00	-56.00	66.00	8.00	27.00	-6.00
-5.00	60.00	-53.00	39.00	23.00	48.00	-26.00
-9.00	106.00	24.00	-44.00	48.00	-7.00	-50.00
-19.00	123.00	71.00	-150.00	51.00	14.00	-42.00
-22.00	126.00	64.00	-138.00	52.00	50.00	-33.00
-33.00	107.00	73.00	-146.00	30.00	45.00	-49.00
-46.00	81.00	-36.00	-62.00	1.00	-17.00	-51.00
-41.00	53.00	-99.00	43.00	-11.00	-12.00	-34.00
-14.00	36.00	6.00	109.00	0.00	5.00	4.00
2.00	6.00	193.00	119.00	17.00	-11.00	-7.00
21.00	-12.00	206.00	122.00	21.00	18.00	8.00
31.00	-28.00	175.00	93.00	12.00	64.00	23.00
49.00	-26.00	177.00	71.00	15.00	67.00	22.00
58.00	-27.00	178.00	39.00	18.00	68.00	16.00
54.00	-20.00	-48.00	-19.00	14.00	49.00	5.00
40.00	-2.00	-348.00	-8.00	11.00	53.00	-2.00
31.00	-12.00	-324.00	31.00	13.00	45.00	-4.00
11.00	-26.00	-121.00	-8.00	14.00	-31.00	4.00
-13.00	-47.00	-4.00	-46.00	6.00	-82.00	18.00
-28.00	-67.00	39.00	-10.00	7.00	-12.00	25.00
-30.00	-79.00	90.00	25.00	17.00	66.00	21.00
-44.00	-82.00	51.00	72.00	9.00	44.00	-11.00
-57.00	-65.00	-59.00	126.00	5.00	40.00	-44.00
-52.00	-52.00	-131.00	184.00	14.00	33.00	-13.00
-48.00	-17.00	-176.00	166.00	-9.00	29.00	-6.00
-54.00	30.00	-143.00	71.00	-6.00	14.00	9.00
-59.00	30.00	-67.00	53.00	8.00	-38.00	-14.00
-24.00	-33.00	16.00	54.00	26.00	-70.00	-27.00
-3.00	-81.00	331.00	-52.00	33.00	-22.00	-18.00
25.00	-103.00	549.00	-156.00	36.00	5.00	-28.00
37.00	-100.00	642.00	-166.00	41.00	26.00	-21.00
52.00	-152.00	565.00	-11.00	22.00	28.00	-12.00
29.00	-227.00	293.00	55.00	5.00	17.00	6.00
11.00	-231.00	-39.00	-31.00	14.00	5.00	12.00
4.00	-153.00	-267.00	-138.00	-53.00	-30.00	16.00
22.00	-24.00	-429.00	-164.00	-63.00	-33.00	13.00
54.00	92.00	-526.00	-106.00	-20.00	-6.00	12.00
54.00	221.00	-485.00	-74.00	7.00	-8.00	5.00
16.00	321.00	-407.00	-28.00	16.00	-9.00	55.00
2.00	397.00	-416.00	12.00	31.00	-21.00	26.00
-25.00	438.00	-328.00	-7.00	32.00	41.00	9.00
-51.00	387.00	-66.00	-128.00	42.00	43.00	4.00
-83.00	319.00	-57.00	-197.00	58.00	60.00	-1.00
-105.00	248.00	-106.00	-119.00	75.00	55.00	4.00
-117.00	143.00	18.00	-80.00	63.00	-16.00	3.00
-119.00	33.00	89.00	-32.00	36.00	-60.00	-19.00
-103.00	-58.00	92.00	42.00	10.00	-96.00	-48.00
-82.00	-81.00	128.00	101.00	8.00	-87.00	-20.00
-64.00	-103.00	235.00	129.00	7.00	-22.00	7.00
-29.00	-105.00	206.00	135.00	3.00	-11.00	5.00
-6.00	-70.00	97.00	90.00	12.00	-7.00	5.00
25.00	-9.00	143.00	61.00	17.00	25.00	12.00
56.00	20.00	200.00	76.00	19.00	40.00	12.00
51.00	21.00	103.00	81.00	16.00	42.00	2.00
54.00	50.00	92.00	148.00	9.00	43.00	-2.00
63.00	79.00	213.00	131.00	3.00	98.00	-5.00
57.00	72.00	245.00	54.00	-4.00	101.00	-13.00
62.00	85.00	87.00	-63.00	-2.00	84.00	-21.00
73.00	63.00	-59.00	-88.00	8.00	53.00	-10.00
55.00	15.00	-178.00	-118.00	6.00	4.00	-12.00
64.00	-7.00	-300.00	-48.00	8.00	-39.00	-6.00
58.00	-26.00	-317.00	-13.00	23.00	-77.00	-5.00
46.00	-34.00	-291.00	26.00	15.00	-12.00	-26.00
38.00	-42.00	-238.00	71.00	0.00	51.00	-42.00
32.00	-63.00	-129.00	55.00	0.00	66.00	-12.00
21.00	-100.00	-17.00	48.00	12.00	74.00	11.00
16.00	-114.00	130.00	-28.00	12.00	28.00	6.00
1.00	-121.00	164.00	-60.00	5.00	-7.00	-26.00
-6.00	-111.00	156.00	-52.00	-20.00	-207.00	-23.00
3.00	-74.00	181.00	-62.00	-19.00	-191.00	-9.00
7.00	-40.00	169.00	-15.00	-21.00	-75.00	20.00
-7.00	-38.00	147.00	74.00	-34.00	-20.00	45.00
-10.00	-24.00	11.00	196.00	-22.00	5.00	21.00
-17.00	-10.00	0.00	187.00	-2.00	53.00	4.00
-16.00	13.00	169.00	136.00	13.00	70.00	-14.00
-20.00	28.00	178.00	42.00	28.00	59.00	24.00
-13.00	15.00	162.00	-83.00	26.00	45.00	36.00
-10.00	4.00	-8.00	-99.00	15.00	47.00	18.00
-8.00	-21.00	-4.00	-110.00	1.00	38.00	6.00
-5.00	-45.00	74.00	-96.00	-3.00	30.00	-15.00
1.00	-61.00	-60.00	-67.00	8.00	9.00	-18.00
5.00	-73.00	-87.00	-55.00	6.00	-19.00	23.00
2.00	-55.00	-43.00	-86.00	-8.00	-14.00	7.00
4.00	-34.00	-5.00	-70.00	4.00	-7.00	2.00
-3.00	4.00	-45.00	-73.00	2.00	0.00	18.00
-20.00	43.00	-140.00	22.00	0.00	9.00	-14.00
-32.00	94.00	-109.00	59.00	5.00	28.00	-39.00
-32.00	127.00	-62.00	56.00	20.00	36.00	-20.00
-22.00	123.00	-67.00	63.00	16.00	37.00	5.00
-12.00	86.00	-72.00	86.00	25.00	36.00	-10.00
-15.00	40.00	26.00	107.00	37.00	30.00	-3.00
-10.00	8.00	250.00	153.00	37.00	32.00	-15.00
-3.00	-10.00	341.00	153.00	35.00	33.00	-20.00
7.00	-32.00	165.00	131.00	28.00	31.00	-4.00
9.00	-42.00	12.00	35.00	11.00	7.00	1.00
1.00	-43.00	-130.00	-41.00	-10.00	-17.00	-9.00
-7.00	17.00	-267.00	-58.00	-11.00	-23.00	19.00
4.00	97.00	-346.00	-71.00	2.00	45.00	38.00
-5.00	107.00	-362.00	-47.00	1.00	80.00	24.00
6.00	77.00	-187.00	-5.00	0.00	73.00	30.00
11.00	16.00	-98.00	90.00	7.00	19.00	20.00
12.00	-37.00	32.00	119.00	8.00	-41.00	6.00
12.00	-50.00	141.00	67.00	13.00	-89.00	1.00
16.00	-60.00	150.00	14.00	16.00	-83.00	17.00
20.00	-79.00	175.00	-24.00	21.00	-18.00	2.00
24.00	-74.00	228.00	-69.00	27.00	-2.00	-48.00
25.00	-52.00	328.00	-132.00	21.00	12.00	-62.00
39.00	17.00	230.00	-173.00	36.00	55.00	-32.00
43.00	95.00	115.00	-156.00	41.00	54.00	-33.00
32.00	125.00	226.00	-111.00	29.00	31.00	-19.00
22.00	162.00	459.00	-112.00	-1.00	1.00	-1.00
14.00	168.00	179.00	-151.00	-14.00	-12.00	6.00
-11.00	168.00	4.00	-57.00	-10.00	-2.00	14.00
-25.00	138.00	-57.00	16.00	-15.00	0.00	28.00
-42.00	107.00	-278.00	41.00	-13.00	-4.00	21.00
-60.00	49.00	-494.00	98.00	4.00	11.00	11.00
-61.00	-56.00	-599.00	183.00	-9.00	-7.00	6.00
-77.00	-189.00	-208.00	152.00	-32.00	-23.00	12.00
-84.00	-257.00	-4.00	104.00	-16.00	7.00	14.00
-57.00	-238.00	6.00	60.00	1.00	10.00	9.00
-22.00	-161.00	17.00	68.00	15.00	41.00	-6.00
4.00	-39.00	83.00	-62.00	24.00	39.00	-30.00
24.00	41.00	66.00	-193.00	16.00	15.00	-35.00
8.00	103.00	-198.00	-130.00	7.00	21.00	-22.00
-13.00	162.00	-394.00	23.00	-14.00	8.00	-33.00
-13.00	219.00	-259.00	138.00	-18.00	35.00	-32.00
24.00	238.00	-39.00	170.00	-26.00	-26.00	-32.00
21.00	210.00	158.00	113.00	-6.00	-25.00	-35.00
46.00	145.00	175.00	45.00	2.00	-58.00	-11.00
84.00	91.00	157.00	-2.00	9.00	-87.00	-16.00
99.00	52.00	47.00	-25.00	21.00	-64.00	-18.00
92.00	41.00	-56.00	-131.00	26.00	1.00	-25.00
94.00	17.00	-162.00	-200.00	39.00	40.00	-27.00
43.00	-48.00	-149.00	-153.00	19.00	36.00	3.00
-23.00	-109.00	-124.00	-8.00	-2.00	19.00	40.00
-103.00	-110.00	-8.00	116.00	9.00	7.00	58.00
-145.00	-96.00	108.00	42.00	45.00	67.00	60.00
-167.00	-58.00	49.00	17.00	36.00	74.00	68.00
-179.00	-3.00	-44.00	34.00	29.00	59.00	60.00
-169.00	71.00	-63.00	32.00	29.00	33.00	46.00
-143.00	128.00	68.00	-39.00	28.00	-33.00	39.00
-100.00	140.00	222.00	-129.00	17.00	-85.00	19.00
-52.00	120.00	349.00	-149.00	19.00	-28.00	19.00
-30.00	82.00	230.00	-59.00	2.00	-24.00	10.00
-9.00	-5.00	39.00	13.00	0.00	-54.00	-5.00
16.00	-74.00	-83.00	40.00	-2.00	-2.00	-11.00
7.00	-106.00	-94.00	52.00	-14.00	76.00	-5.00
0.00	-117.00	-102.00	69.00	1.00	110.00	22.00
25.00	-105.00	-142.00	77.00	23.00	123.00	13.00
41.00	-58.00	23.00	58.00	22.00	84.00	-19.00
48.00	-27.00	109.00	45.00	3.00	-19.00	-16.00
59.00	3.00	57.00	60.00	-2.00	-107.00	-33.00
59.00	12.00	-55.00	70.00	-6.00	-123.00	-43.00
63.00	27.00	-61.00	29.00	-6.00	-34.00	-84.00
37.00	37.00	-62.00	60.00	-22.00	13.00	-50.00
38.00	30.00	-53.00	65.00	29.00	54.00	-24.00
46.00	46.00	25.00	38.00	41.00	-8.00	-15.00
54.00	23.00	280.00	37.00	10.00	-43.00	-1.00
67.00	-1.00	367.00	15.00	-11.00	-12.00	-1.00
66.00	-38.00	356.00	36.00	3.00	15.00	-11.00
56.00	-46.00	204.00	68.00	7.00	36.00	7.00
43.00	-38.00	36.00	87.00	0.00	19.00	10.00
43.00	-16.00	-92.00	67.00	-8.00	-12.00	10.00
38.00	20.00	-236.00	20.00	2.00	7.00	14.00
23.00	43.00	-304.00	-32.00	11.00	29.00	15.00
1.00	48.00	-299.00	-59.00	-5.00	32.00	-15.00
-6.00	32.00	-284.00	-52.00	-11.00	-6.00	-20.00
-11.00	-6.00	-209.00	-27.00	12.00	24.00	5.00
-11.00	-31.00	-34.00	41.00	19.00	32.00	20.00
4.00	-9.00	33.00	65.00	27.00	41.00	1.00
18.00	19.00	23.00	44.00	38.00	50.00	19.00
23.00	24.00	6.00	3.00	44.00	37.00	21.00
27.00	-11.00	12.00	23.00	44.00	26.00	18.00
23.00	-62.00	189.00	40.00	44.00	19.00	3.00
12.00	-77.00	238.00	-4.00	42.00	22.00	4.00
13.00	-82.00	203.00	-57.00	39.00	26.00	9.00
10.00	-69.00	227.00	-59.00	15.00	16.00	9.00
12.00	-36.00	258.00	32.00	6.00	5.00	0.00
7.00	-20.00	166.00	62.00	-9.00	7.00	-9.00
17.00	9.00	48.00	15.00	-3.00	21.00	-14.00
18.00	34.00	-56.00	-60.00	18.00	17.00	-21.00
16.00	50.00	-100.00	-84.00	27.00	17.00	7.00
41.00	53.00	-123.00	-57.00	12.00	26.00	-6.00
29.00	67.00	-35.00	-103.00	6.00	26.00	-2.00
17.00	60.00	-39.00	-80.00	8.00	12.00	-4.00
-13.00	42.00	14.00	-33.00	-8.00	-26.00	-31.00
-22.00	30.00	80.00	2.00	-14.00	-5.00	-24.00
-39.00	61.00	183.00	-4.00	-7.00	1.00	-48.00
-50.00	107.00	74.00	-20.00	4.00	-52.00	-16.00
-77.00	108.00	-153.00	-44.00	5.00	-116.00	1.00
-94.00	95.00	-267.00	-4.00	14.00	-73.00	-4.00
-95.00	67.00	-352.00	48.00	22.00	-24.00	24.00
-87.00	26.00	-316.00	165.00	29.00	7.00	63.00
-77.00	-14.00	-142.00	299.00	29.00	32.00	67.00
-60.00	-30.00	170.00	332.00	19.00	24.00	10.00
-29.00	-4.00	192.00	244.00	3.00	46.00	-38.00
-4.00	-22.00	46.00	165.00	6.00	12.00	-31.00
9.00	-46.00	-98.00	-6.00	12.00	14.00	-24.00
-3.00	-67.00	-264.00	-211.00	5.00	0.00	3.00
-28.00	-48.00	-309.00	-316.00	0.00	-17.00	9.00
-29.00	-12.00	-237.00	-381.00	6.00	11.00	4.00
-31.00	26.00	-131.00	-341.00	12.00	38.00	7.00
-16.00	99.00	52.00	-210.00	2.00	27.00	15.00
1.00	121.00	148.00	-151.00	-11.00	12.00	7.00
15.00	68.00	207.00	-73.00	8.00	57.00	8.00
32.00	4.00	189.00	-8.00	13.00	74.00	24.00
40.00	-26.00	58.00	34.00	-15.00	31.00	27.00
41.00	-30.00	57.00	23.00	-23.00	-41.00	16.00
47.00	-17.00	88.00	66.00	-34.00	-105.00	0.00
47.00	-10.00	121.00	225.00	-16.00	-43.00	-10.00
37.00	4.00	272.00	267.00	13.00	25.00	-33.00
25.00	12.00	184.00	271.00	29.00	31.00	-35.00
10.00	21.00	33.00	194.00	31.00	10.00	-11.00
1.00	27.00	-49.00	22.00	64.00	27.00	17.00
-13.00	-15.00	-10.00	-180.00	52.00	10.00	-7.00
-48.00	-74.00	-42.00	-232.00	2.00	-16.00	-19.00
-52.00	-80.00	-255.00	-134.00	-10.00	-26.00	-3.00
-43.00	-57.00	-306.00	-90.00	6.00	-38.00	16.00
-31.00	-16.00	-222.00	13.00	4.00	1.00	9.00
-10.00	37.00	-163.00	91.00	27.00	24.00	0.00
5.00	108.00	-80.00	57.00	37.00	35.00	-3.00
15.00	187.00	169.00	0.00	29.00	25.00	-10.00
21.00	221.00	358.00	-42.00	20.00	19.00	-14.00
39.00	238.00	388.00	-32.00	24.00	34.00	-13.00
50.00	205.00	286.00	-48.00	27.00	51.00	10.00
64.00	138.00	187.00	-42.00	12.00	32.00	12.00
55.00	72.00	130.00	-82.00	-20.00	7.00	8.00
41.00	37.00	20.00	-30.00	-40.00	-8.00	10.00
46.00	-15.00	-100.00	31.00	-36.00	-13.00	-4.00
33.00	-58.00	-101.00	10.00	0.00	11.00	-23.00
35.00	-89.00	-52.00	46.00	10.00	19.00	-15.00
23.00	-100.00	-76.00	52.00	0.00	-5.00	-6.00
11.00	-80.00	-84.00	73.00	-8.00	-11.00	-5.00
-18.00	-80.00	-38.00	80.00	14.00	10.00	5.00
-49.00	-84.00	-62.00	94.00	23.00	32.00	8.00
-57.00	-77.00	-34.00	105.00	11.00	34.00	-1.00
-65.00	-96.00	52.00	104.00	4.00	8.00	11.00
-78.00	-126.00	258.00	102.00	9.00	-6.00	8.00
-50.00	-80.00	257.00	87.00	13.00	17.00	-4.00
-5.00	17.00	156.00	27.00	0.00	7.00	-13.00
9.00	61.00	46.00	-33.00	-11.00	-31.00	8.00
19.00	68.00	-151.00	14.00	6.00	-19.00	14.00
-4.00	71.00	-271.00	53.00	14.00	10.00	18.00
-12.00	64.00	-397.00	172.00	24.00	35.00	26.00
-23.00	44.00	-311.00	215.00	47.00	96.00	8.00
-39.00	42.00	-158.00	127.00	58.00	70.00	-34.00
-51.00	39.00	-105.00	23.00	69.00	40.00	-25.00
-71.00	-2.00	111.00	-26.00	61.00	2.00	10.00
-66.00	1.00	161.00	-197.00	5.00	-103.00	10.00
-70.00	37.00	44.00	-274.00	-38.00	-110.00	15.00
-58.00	58.00	-111.00	-190.00	-41.00	-44.00	-5.00
-64.00	33.00	-308.00	-110.00	-25.00	12.00	-16.00
-36.00	39.00	-298.00	-54.00	6.00	20.00	-1.00
-15.00	19.00	-270.00	-26.00	33.00	23.00	12.00
10.00	-35.00	-86.00	-35.00	36.00	41.00	17.00
15.00	-147.00	106.00	9.00	13.00	36.00	11.00
35.00	-290.00	261.00	85.00	-22.00	-3.00	2.00
44.00	-357.00	316.00	83.00	-27.00	-3.00	-24.00
58.00	-312.00	360.00	133.00	-21.00	77.00	-35.00
65.00	-214.00	293.00	165.00	-19.00	157.00	-23.00
91.00	-104.00	173.00	120.00	-2.00	134.00	-11.00
95.00	19.00	-20.00	-46.00	6.00	83.00	-3.00
99.00	153.00	-223.00	-45.00	16.00	-52.00	1.00
97.00	244.00	-207.00	-18.00	15.00	-204.00	33.00
105.00	283.00	-60.00	33.00	44.00	-216.00	35.00
90.00	308.00	316.00	26.00	55.00	-60.00	16.00
53.00	258.00	453.00	-46.00	43.00	56.00	-7.00
-11.00	170.00	273.00	16.00	38.00	78.00	0.00
-38.00	89.00	181.00	-41.00	24.00	65.00	6.00
-54.00	72.00	80.00	-137.00	19.00	-12.00	-7.00
-83.00	123.00	-201.00	-233.00	13.00	-100.00	-13.00
-118.00	177.00	-498.00	-208.00	-13.00	-20.00	-4.00
-142.00	168.00	-504.00	-171.00	-20.00	7.00	-5.00
-145.00	149.00	-350.00	-30.00	-10.00	-4.00	-23.00
-113.00	97.00	-185.00	43.00	12.00	-22.00	-38.00
-75.00	84.00	-112.00	39.00	34.00	-106.00	35.00
-40.00	88.00	-50.00	64.00	38.00	-103.00	34.00
-15.00	51.00	-2.00	96.00	34.00	-9.00	1.00
7.00	20.00	10.00	89.00	21.00	99.00	36.00
23.00	4.00	76.00	44.00	24.00	78.00	29.00
33.00	-6.00	127.00	8.00	24.00	51.00	17.00
41.00	-14.00	118.00	-14.00	20.00	46.00	35.00
44.00	-16.00	108.00	-40.00	22.00	63.00	15.00
48.00	-15.00	84.00	-12.00	28.00	67.00	4.00
41.00	-45.00	89.00	25.00	30.00	64.00	-10.00
39.00	-83.00	92.00	40.00	27.00	53.00	-20.00
32.00	-113.00	58.00	40.00	16.00	22.00	-2.00
31.00	-108.00	42.00	38.00	-7.00	-5.00	-9.00
23.00	-114.00	111.00	40.00	-12.00	-16.00	-19.00
24.00	-120.00	170.00	54.00	-10.00	0.00	-40.00
25.00	-126.00	303.00	80.00	7.00	21.00	-38.00
29.00	-109.00	276.00	68.00	11.00	37.00	-16.00
40.00	-102.00	215.00	70.00	2.00	27.00	-6.00
37.00	-132.00	46.00	68.00	-7.00	1.00	-8.00
52.00	-160.00	-75.00	58.00	-11.00	4.00	1.00
57.00	-181.00	-161.00	37.00	-4.00	23.00	-6.00
60.00	-232.00	-228.00	73.00	1.00	39.00	-44.00
62.00	-241.00	-146.00	70.00	19.00	23.00	-45.00
43.00	-222.00	-41.00	67.00	21.00	-23.00	-22.00
18.00	-152.00	-7.00	55.00	7.00	-29.00	5.00
-9.00	-20.00	-92.00	-20.00	-24.00	-6.00	23.00
-22.00	125.00	-77.00	-76.00	-44.00	10.00	28.00
-47.00	247.00	-80.00	-105.00	-35.00	11.00	41.00
-72.00	332.00	-125.00	-98.00	-23.00	4.00	31.00
-98.00	401.00	-56.00	-139.00	-7.00	-6.00	20.00
-109.00	423.00	19.00	-110.00	11.00	-6.00	19.00
-97.00	365.00	-20.00	1.00	25.00	37.00	15.00
-72.00	295.00	43.00	116.00	19.00	93.00	12.00
-40.00	240.00	-3.00	98.00	24.00	77.00	15.00
-19.00	147.00	-85.00	23.00	37.00	81.00	30.00
-18.00	74.00	-191.00	-36.00	25.00	62.00	36.00
-25.00	49.00	-178.00	-54.00	15.00	15.00	-8.00
-2.00	41.00	-100.00	14.00	40.00	-78.00	-25.00
25.00	23.00	84.00	-93.00	48.00	-109.00	-27.00
37.00	-11.00	314.00	-60.00	65.00	-149.00	-41.00
49.00	-52.00	547.00	92.00	32.00	-90.00	-58.00
75.00	-66.00	546.00	207.00	-42.00	-58.00	-44.00
86.00	-74.00	227.00	237.00	-51.00	-42.00	-26.00
72.00	-85.00	-112.00	179.00	-30.00	3.00	-5.00
54.00	-110.00	-313.00	74.00	1.00	24.00	0.00
22.00	-125.00	-506.00	-40.00	23.00	14.00	9.00
1.00	-129.00	-505.00	-122.00	31.00	23.00	8.00
0.00	-109.00	-303.00	-182.00	34.00	33.00	-4.00
-21.00	-94.00	-31.00	-248.00	33.00	29.00	4.00
-47.00	-70.00	172.00	-294.00	14.00	14.00	2.00
-58.00	-55.00	235.00	-185.00	2.00	0.00	-14.00
-69.00	-48.00	145.00	-123.00	-5.00	2.00	-10.00
-82.00	-28.00	18.00	-27.00	0.00	1.00	-12.00
-71.00	-20.00	-27.00	49.00	9.00	12.00	-13.00
-50.00	-20.00	23.00	29.00	16.00	32.00	-9.00
-62.00	-21.00	-40.00	41.00	16.00	26.00	10.00
-65.00	-6.00	-150.00	119.00	21.00	35.00	8.00
-59.00	0.00	-1.00	127.00	17.00	32.00	26.00
-51.00	-26.00	102.00	108.00	12.00	39.00	45.00
-26.00	-12.00	38.00	113.00	11.00	34.00	42.00
-13.00	11.00	-7.00	85.00	7.00	2.00	42.00
-30.00	-26.00	57.00	93.00	10.00	-42.00	24.00
-36.00	-66.00	39.00	84.00	4.00	-9.00	4.00
-13.00	-70.00	-71.00	102.00	5.00	74.00	3.00
5.00	-54.00	-72.00	132.00	5.00	54.00	-7.00
18.00	-39.00	-17.00	65.00	4.00	-16.00	-12.00
31.00	-14.00	-52.00	-28.00	21.00	-29.00	-11.00
70.00	26.00	-18.00	-114.00	22.00	-44.00	-6.00
84.00	81.00	-26.00	-139.00	23.00	-17.00	12.00
108.00	117.00	189.00	-185.00	18.00	45.00	9.00
102.00	134.00	209.00	-208.00	3.00	19.00	3.00
104.00	142.00	106.00	-172.00	1.00	7.00	-4.00
105.00	134.00	59.00	-144.00	4.00	16.00	-21.00
83.00	139.00	-17.00	-83.00	-37.00	-11.00	-33.00
58.00	123.00	35.00	-22.00	-62.00	-15.00	-12.00
17.00	110.00	7.00	28.00	-37.00	-9.00	-13.00
-30.00	76.00	-37.00	64.00	-8.00	7.00	-11.00
-68.00	39.00	-33.00	86.00	25.00	30.00	-1.00
-96.00	3.00	-52.00	86.00	41.00	25.00	25.00
-116.00	-30.00	-53.00	76.00	48.00	14.00	25.00
-116.00	-42.00	-123.00	54.00	49.00	6.00	13.00
-110.00	-68.00	-56.00	113.00	24.00	-10.00	9.00
-88.00	-126.00	-14.00	175.00	19.00	8.00	15.00
-65.00	-126.00	125.00	199.00	33.00	-28.00	12.00
-36.00	-104.00	63.00	308.00	28.00	14.00	7.00
-26.00	-76.00	-16.00	321.00	4.00	14.00	19.00
10.00	-24.00	-45.00	204.00	22.00	38.00	5.00
24.00	26.00	-26.00	-14.00	27.00	35.00	-6.00
9.00	96.00	-24.00	-243.00	4.00	3.00	14.00
-14.00	128.00	50.00	-287.00	-16.00	20.00	16.00
-14.00	140.00	39.00	-274.00	-13.00	54.00	-2.00
0.00	130.00	60.00	-223.00	5.00	32.00	-10.00
4.00	130.00	68.00	-206.00	3.00	11.00	-10.00
21.00	106.00	150.00	-56.00	11.00	-22.00	-12.00
45.00	90.00	231.00	5.00	15.00	-49.00	-22.00
52.00	74.00	410.00	14.00	11.00	-68.00	-28.00
48.00	20.00	314.00	32.00	0.00	10.00	-24.00
32.00	-36.00	-13.00	139.00	6.00	39.00	-19.00
28.00	-58.00	-276.00	217.00	5.00	0.00	-37.00
24.00	-42.00	-369.00	181.00	11.00	-1.00	-52.00
6.00	-29.00	-395.00	80.00	35.00	31.00	2.00
2.00	7.00	-487.00	70.00	42.00	40.00	49.00
2.00	4.00	-405.00	73.00	19.00	10.00	29.00
15.00	-16.00	-145.00	-15.00	14.00	1.00	7.00
27.00	3.00	28.00	-164.00	10.00	-24.00	-21.00
52.00	37.00	80.00	-207.00	21.00	-23.00	-10.00
65.00	47.00	100.00	-158.00	18.00	18.00	4.00
65.00	31.00	231.00	-44.00	-6.00	22.00	18.00
51.00	27.00	193.00	16.00	-24.00	20.00	35.00
42.00	26.00	92.00	11.00	-26.00	37.00	39.00
23.00	36.00	29.00	-6.00	-16.00	35.00	17.00
15.00	6.00	-30.00	85.00	-1.00	5.00	7.00
17.00	-46.00	-11.00	125.00	23.00	-3.00	3.00
22.00	-72.00	-10.00	95.00	31.00	-56.00	-27.00
2.00	-86.00	-30.00	26.00	33.00	-33.00	-35.00
-13.00	-147.00	23.00	36.00	22.00	12.00	-27.00
-6.00	-193.00	-27.00	40.00	14.00	8.00	7.00
-27.00	-177.00	-164.00	12.00	0.00	20.00	16.00
-30.00	-85.00	-147.00	-25.00	-2.00	21.00	12.00
9.00	17.00	-35.00	-22.00	1.00	46.00	1.00
29.00	111.00	9.00	31.00	0.00	67.00	-9.00
56.00	232.00	171.00	95.00	-16.00	23.00	3.00
60.00	275.00	450.00	122.00	-14.00	-1.00	9.00
41.00	247.00	436.00	134.00	-25.00	-45.00	0.00
24.00	210.00	234.00	138.00	-44.00	-51.00	-16.00
23.00	227.00	59.00	45.00	10.00	-18.00	-9.00
-4.00	166.00	-107.00	-57.00	26.00	-1.00	-23.00
-52.00	89.00	-273.00	-107.00	13.00	-5.00	10.00
-87.00	68.00	-277.00	-125.00	29.00	33.00	28.00
-70.00	6.00	-76.00	-136.00	33.00	32.00	24.00
-74.00	-59.00	41.00	-73.00	21.00	27.00	9.00
-68.00	-95.00	17.00	-94.00	-5.00	6.00	19.00
-69.00	-116.00	-13.00	-102.00	-16.00	-12.00	6.00
-59.00	-179.00	-21.00	-37.00	-1.00	0.00	-8.00
-44.00	-209.00	-57.00	29.00	11.00	19.00	-12.00
-47.00	-225.00	-82.00	-10.00	12.00	22.00	-15.00
-40.00	-204.00	-124.00	-19.00	12.00	15.00	-18.00
-18.00	-169.00	-29.00	32.00	12.00	25.00	-19.00
-5.00	-115.00	-34.00	24.00	12.00	25.00	-23.00
-11.00	-39.00	-46.00	45.00	-10.00	29.00	-21.00
-20.00	76.00	-53.00	130.00	-29.00	26.00	14.00
-26.00	161.00	34.00	150.00	-36.00	17.00	37.00
-24.00	204.00	100.00	137.00	-19.00	15.00	18.00
-21.00	195.00	-13.00	87.00	10.00	16.00	-8.00
-17.00	163.00	-10.00	39.00	46.00	16.00	-3.00
1.00	119.00	106.00	-109.00	39.00	-9.00	9.00
9.00	80.00	183.00	-264.00	33.00	-10.00	5.00
22.00	57.00	83.00	-292.00	45.00	19.00	14.00
31.00	18.00	86.00	-176.00	55.00	8.00	2.00
24.00	-25.00	332.00	-43.00	56.00	23.00	7.00
6.00	-68.00	342.00	-4.00	41.00	57.00	-3.00
8.00	-90.00	72.00	11.00	43.00	60.00	6.00
17.00	-87.00	-194.00	72.00	43.00	50.00	6.00
37.00	-89.00	-271.00	160.00	7.00	-10.00	1.00
61.00	-106.00	-256.00	139.00	-2.00	-68.00	5.00
68.00	-71.00	-295.00	101.00	5.00	-89.00	-8.00
60.00	0.00	-272.00	105.00	11.00	-41.00	-16.00
35.00	10.00	-115.00	88.00	25.00	14.00	-18.00
-4.00	8.00	12.00	44.00	14.00	-14.00	-21.00
-51.00	18.00	208.00	-77.00	-19.00	-43.00	-11.00
-65.00	30.00	110.00	-53.00	-8.00	-25.00	1.00
-74.00	6.00	194.00	114.00	30.00	4.00	9.00
-30.00	-4.00	453.00	117.00	23.00	29.00	7.00
0.00	7.00	346.00	-19.00	-7.00	6.00	8.00
10.00	31.00	70.00	-127.00	-32.00	-39.00	1.00
5.00	50.00	-222.00	-174.00	-48.00	-37.00	-14.00
-5.00	67.00	-469.00	-123.00	-37.00	-25.00	-33.00
-25.00	94.00	-374.00	-64.00	-13.00	-16.00	-8.00
-57.00	125.00	-355.00	-39.00	19.00	10.00	20.00
-76.00	157.00	-217.00	-66.00	35.00	25.00	25.00
-83.00	172.00	32.00	-64.00	37.00	35.00	13.00
-102.00	167.00	90.00	-45.00	29.00	13.00	1.00
-91.00	108.00	68.00	-2.00	16.00	5.00	3.00
-63.00	31.00	18.00	24.00	22.00	22.00	3.00
-20.00	-33.00	9.00	-20.00	32.00	78.00	0.00
1.00	-74.00	18.00	-46.00	32.00	98.00	-11.00
28.00	-85.00	-1.00	18.00	21.00	75.00	-6.00
46.00	-80.00	16.00	46.00	-1.00	34.00	9.00
57.00	-123.00	6.00	74.00	-10.00	-10.00	2.00
59.00	-115.00	45.00	75.00	6.00	-102.00	5.00
55.00	-76.00	95.00	63.00	25.00	-42.00	6.00
50.00	-34.00	140.00	104.00	25.00	0.00	-13.00
32.00	9.00	163.00	117.00	23.00	24.00	-31.00
13.00	50.00	148.00	97.00	12.00	51.00	-3.00
6.00	97.00	51.00	140.00	11.00	71.00	-5.00
1.00	139.00	-65.00	197.00	11.00	42.00	-13.00
-6.00	116.00	-71.00	96.00	23.00	18.00	-10.00
-14.00	87.00	-101.00	-35.00	15.00	-7.00	7.00
-24.00	88.00	-133.00	-89.00	4.00	-66.00	14.00
-20.00	66.00	-95.00	-107.00	-1.00	-87.00	-7.00
-7.00	11.00	25.00	-111.00	14.00	1.00	-10.00
17.00	-6.00	129.00	-98.00	2.00	34.00	-2.00
21.00	-22.00	162.00	-110.00	-7.00	26.00	24.00
27.00	-25.00	98.00	-9.00	-11.00	61.00	24.00
32.00	-40.00	65.00	55.00	-20.00	59.00	21.00
42.00	-56.00	65.00	73.00	-27.00	28.00	8.00
59.00	-36.00	86.00	30.00	-5.00	0.00	14.00
60.00	8.00	14.00	-25.00	-1.00	-28.00	20.00
55.00	12.00	-30.00	42.00	-6.00	-3.00	4.00
39.00	-35.00	19.00	90.00	-2.00	-19.00	-18.00
15.00	-52.00	7.00	50.00	15.00	-13.00	-29.00
9.00	-65.00	28.00	43.00	17.00	16.00	-33.00
15.00	-83.00	45.00	16.00	13.00	-3.00	-14.00
3.00	-85.00	12.00	-69.00	4.00	10.00	6.00
-9.00	-87.00	-37.00	-58.00	10.00	10.00	5.00
-17.00	-65.00	-122.00	-62.00	22.00	14.00	7.00
-6.00	-44.00	-145.00	62.00	29.00	29.00	11.00
3.00	-74.00	-94.00	144.00	45.00	24.00	-3.00
9.00	-107.00	97.00	132.00	51.00	24.00	7.00
9.00	-150.00	85.00	121.00	49.00	85.00	0.00
12.00	-206.00	112.00	89.00	58.00	100.00	-11.00
14.00	-214.00	158.00	53.00	55.00	85.00	-11.00
21.00	-122.00	202.00	-34.00	34.00	41.00	3.00
24.00	5.00	197.00	-63.00	9.00	-37.00	9.00
31.00	163.00	99.00	-76.00	-10.00	-109.00	14.00
26.00	277.00	-4.00	-80.00	-40.00	-137.00	-11.00
27.00	351.00	-87.00	-90.00	-46.00	-59.00	-27.00
25.00	386.00	-302.00	-104.00	-43.00	-22.00	-30.00
-11.00	389.00	-299.00	-78.00	-17.00	9.00	-13.00
-28.00	345.00	-209.00	-22.00	-5.00	0.00	-4.00
-26.00	250.00	-180.00	27.00	8.00	2.00	-4.00
-14.00	144.00	14.00	0.00	0.00	17.00	4.00
-3.00	35.00	185.00	-35.00	-8.00	32.00	15.00
-19.00	-62.00	179.00	48.00	6.00	47.00	24.00
-30.00	-90.00	218.00	160.00	5.00	34.00	12.00
-43.00	-55.00	157.00	234.00	-12.00	6.00	1.00
-58.00	-17.00	-107.00	283.00	-4.00	-4.00	-29.00
-66.00	8.00	-357.00	224.00	33.00	9.00	18.00
-85.00	3.00	-481.00	81.00	44.00	2.00	24.00
-120.00	17.00	-497.00	-98.00	46.00	7.00	44.00
-141.00	52.00	-391.00	-254.00	39.00	-3.00	34.00
-142.00	72.00	-274.00	-298.00	35.00	-1.00	15.00
-108.00	52.00	60.00	-340.00	29.00	-5.00	2.00
-69.00	33.00	190.00	-277.00	14.00	-6.00	-8.00
-38.00	18.00	267.00	-214.00	7.00	10.00	-11.00
2.00	-6.00	276.00	-94.00	17.00	-1.00	-20.00
29.00	-11.00	254.00	25.00	0.00	3.00	-16.00
64.00	-28.00	309.00	142.00	-8.00	25.00	-16.00
86.00	-27.00	238.00	174.00	-9.00	-9.00	2.00
113.00	-39.00	110.00	156.00	0.00	17.00	7.00
145.00	-44.00	-1.00	117.00	20.00	-2.00	0.00
170.00	-48.00	-17.00	26.00	29.00	18.00	-2.00
150.00	-54.00	-105.00	-65.00	30.00	8.00	11.00
99.00	-63.00	-282.00	-34.00	35.00	3.00	8.00
47.00	-92.00	-212.00	44.00	46.00	14.00	4.00
2.00	-103.00	-72.00	14.00	51.00	32.00	-2.00
-33.00	-81.00	140.00	4.00	42.00	16.00	-3.00
-60.00	-79.00	241.00	-5.00	26.00	24.00	-8.00
-71.00	-88.00	297.00	-42.00	13.00	15.00	-12.00
-80.00	-87.00	264.00	-40.00	15.00	21.00	-13.00
-88.00	-76.00	187.00	-102.00	5.00	14.00	-19.00
-107.00	-79.00	32.00	-83.00	-14.00	-3.00	-19.00
-77.00	-77.00	-35.00	-24.00	-10.00	-21.00	-11.00
-49.00	-31.00	21.00	20.00	2.00	-13.00	-10.00
-38.00	37.00	51.00	69.00	2.00	-7.00	-15.00
-27.00	85.00	22.00	81.00	-4.00	5.00	-22.00
-12.00	83.00	-13.00	94.00	2.00	5.00	-31.00
-11.00	92.00	-115.00	79.00	-7.00	10.00	-11.00
-27.00	90.00	-188.00	42.00	4.00	11.00	-3.00
-40.00	89.00	-245.00	21.00	0.00	5.00	8.00
-30.00	65.00	-180.00	46.00	-6.00	-46.00	12.00
-22.00	21.00	-139.00	154.00	-8.00	-43.00	15.00
2.00	-8.00	-30.00	213.00	-10.00	13.00	23.00
29.00	-18.00	-26.00	174.00	2.00	45.00	19.00
43.00	-2.00	23.00	75.00	2.00	45.00	30.00
49.00	-9.00	119.00	-29.00	-12.00	22.00	9.00
51.00	-9.00	47.00	-62.00	-6.00	12.00	2.00
40.00	38.00	-23.00	-78.00	6.00	70.00	17.00
30.00	60.00	52.00	-87.00	22.00	25.00	20.00
8.00	45.00	107.00	-75.00	22.00	-26.00	0.00
9.00	-32.00	36.00	39.00	25.00	2.00	-10.00
-6.00	-98.00	28.00	44.00	10.00	-37.00	-24.00
-18.00	-108.00	1.00	47.00	15.00	-46.00	-6.00
-22.00	-90.00	-47.00	10.00	21.00	0.00	1.00
-21.00	-91.00	15.00	-24.00	27.00	38.00	-4.00
-8.00	-51.00	-57.00	-53.00	6.00	17.00	-11.00
-4.00	16.00	-179.00	-123.00	-8.00	6.00	-11.00
-6.00	120.00	-201.00	-132.00	-5.00	-1.00	-2.00
10.00	241.00	-218.00	-87.00	6.00	8.00	5.00
29.00	302.00	-127.00	25.00	11.00	26.00	19.00
47.00	340.00	-32.00	90.00	17.00	37.00	25.00
54.00	291.00	8.00	108.00	27.00	43.00	18.00
45.00	229.00	79.00	110.00	29.00	33.00	10.00
42.00	152.00	42.00	194.00	24.00	23.00	-9.00
18.00	-38.00	82.00	240.00	11.00	-2.00	4.00
-13.00	-234.00	51.00	160.00	6.00	6.00	4.00
-17.00	-336.00	38.00	43.00	4.00	25.00	-5.00
-18.00	-366.00	82.00	-69.00	12.00	4.00	-7.00
3.00	-329.00	179.00	-113.00	15.00	-37.00	-12.00
15.00	-224.00	265.00	-270.00	11.00	-38.00	-11.00
9.00	-50.00	195.00	-368.00	6.00	-16.00	-12.00
11.00	123.00	129.00	-246.00	4.00	16.00	-11.00
34.00	256.00	176.00	-30.00	-5.00	10.00	0.00
51.00	366.00	258.00	104.00	-4.00	11.00	6.00
54.00	430.00	170.00	172.00	15.00	29.00	-12.00
51.00	411.00	162.00	206.00	-52.00	8.00	-27.00
37.00	301.00	40.00	187.00	-79.00	20.00	-31.00
27.00	191.00	-64.00	46.00	-41.00	32.00	-21.00
0.00	118.00	-88.00	-176.00	4.00	24.00	-18.00
-30.00	48.00	-155.00	-312.00	30.00	-9.00	-3.00
-60.00	-21.00	-250.00	-272.00	41.00	-19.00	5.00
-60.00	-81.00	-420.00	-87.00	59.00	-13.00	-4.00
-48.00	-115.00	-244.00	-61.00	32.00	2.00	-7.00
-22.00	-135.00	-85.00	-124.00	27.00	21.00	2.00
-9.00	-102.00	-38.00	-96.00	38.00	25.00	13.00
-16.00	-60.00	11.00	15.00	27.00	2.00	21.00
-30.00	-35.00	20.00	42.00	26.00	-13.00	39.00
-47.00	-16.00	13.00	53.00	34.00	-21.00	21.00
-59.00	-30.00	-82.00	66.00	36.00	0.00	25.00
-59.00	-42.00	-134.00	71.00	43.00	23.00	46.00
-77.00	-76.00	-28.00	73.00	43.00	2.00	29.00
-53.00	-70.00	-25.00	45.00	32.00	18.00	11.00
-23.00	-83.00	-39.00	49.00	7.00	50.00	-25.00
-5.00	-79.00	4.00	70.00	14.00	28.00	-22.00
10.00	-59.00	78.00	62.00	-2.00	17.00	-36.00
5.00	-32.00	88.00	76.00	-2.00	19.00	-42.00
17.00	-15.00	19.00	97.00	9.00	18.00	-12.00
15.00	-26.00	-43.00	96.00	9.00	11.00	17.00
8.00	-68.00	-9.00	84.00	10.00	21.00	17.00
16.00	-157.00	139.00	187.00	9.00	22.00	10.00
17.00	-202.00	223.00	339.00	27.00	36.00	7.00
43.00	-193.00	231.00	392.00	14.00	61.00	-11.00
77.00	-157.00	253.00	295.00	10.00	80.00	-24.00
81.00	-100.00	93.00	197.00	11.00	51.00	-32.00
74.00	-46.00	-174.00	148.00	-42.00	-1.00	-56.00
64.00	5.00	-156.00	-43.00	-52.00	-46.00	-31.00
30.00	95.00	80.00	-301.00	-38.00	-82.00	-2.00
-17.00	198.00	87.00	-458.00	-24.00	-47.00	9.00
-60.00	224.00	-51.00	-339.00	-2.00	-49.00	20.00
-81.00	212.00	-170.00	-147.00	-2.00	-131.00	23.00
-70.00	156.00	-191.00	-154.00	-39.00	-102.00	-12.00
-64.00	118.00	-167.00	-75.00	-18.00	-48.00	32.00
-49.00	107.00	-94.00	-90.00	4.00	-8.00	19.00
-44.00	98.00	-59.00	-183.00	15.00	21.00	7.00
-28.00	69.00	-43.00	-118.00	10.00	4.00	-6.00
-7.00	35.00	-17.00	-10.00	16.00	26.00	-21.00
4.00	-4.00	-12.00	96.00	37.00	34.00	-28.00
2.00	-52.00	145.00	125.00	43.00	39.00	-22.00
2.00	-91.00	143.00	84.00	47.00	38.00	-5.00
0.00	-126.00	20.00	81.00	34.00	48.00	7.00
4.00	-177.00	-49.00	63.00	19.00	76.00	7.00
0.00	-179.00	1.00	54.00	32.00	79.00	26.00
-3.00	-130.00	-29.00	19.00	12.00	48.00	8.00
1.00	-92.00	18.00	-53.00	2.00	-5.00	-4.00
13.00	6.00	26.00	9.00	14.00	-15.00	20.00
16.00	70.00	6.00	47.00	29.00	-6.00	41.00
11.00	117.00	-2.00	-37.00	19.00	-19.00	39.00
12.00	151.00	-14.00	-55.00	0.00	-21.00	20.00
10.00	189.00	-10.00	-47.00	5.00	-3.00	-4.00
11.00	206.00	-21.00	-53.00	1.00	1.00	5.00
17.00	201.00	92.00	-68.00	8.00	1.00	-2.00
23.00	165.00	74.00	-79.00	27.00	56.00	6.00
22.00	117.00	57.00	-90.00	29.00	42.00	-13.00
39.00	65.00	29.00	-27.00	38.00	29.00	-29.00
52.00	-35.00	163.00	64.00	12.00	23.00	-31.00
58.00	-123.00	188.00	155.00	6.00	35.00	-38.00
51.00	-134.00	93.00	197.00	9.00	43.00	-39.00
55.00	-128.00	71.00	181.00	16.00	41.00	-15.00
43.00	-148.00	10.00	137.00	11.00	15.00	21.00
18.00	-122.00	-142.00	148.00	-30.00	1.00	10.00
-1.00	-55.00	-353.00	90.00	-40.00	-19.00	9.00
-29.00	19.00	-230.00	8.00	-26.00	-50.00	9.00
-72.00	99.00	-77.00	-44.00	-5.00	-45.00	9.00
-104.00	157.00	-94.00	-65.00	12.00	25.00	-13.00
-91.00	170.00	-4.00	-16.00	20.00	39.00	-10.00
-52.00	164.00	112.00	-33.00	25.00	28.00	-9.00
-15.00	172.00	74.00	-131.00	40.00	-5.00	-2.00
10.00	132.00	17.00	-183.00	22.00	-53.00	10.00
22.00	64.00	-35.00	-168.00	-12.00	-85.00	10.00
11.00	39.00	-15.00	-128.00	-22.00	-59.00	-7.00
18.00	15.00	-21.00	-53.00	-22.00	-7.00	-10.00
26.00	-29.00	31.00	-12.00	-4.00	25.00	-2.00
11.00	-87.00	38.00	10.00	15.00	24.00	-6.00
0.00	-105.00	19.00	51.00	21.00	19.00	-7.00
-9.00	-91.00	-1.00	63.00	19.00	12.00	-3.00
-29.00	-65.00	-16.00	86.00	15.00	16.00	-2.00
-39.00	-60.00	37.00	80.00	23.00	28.00	-8.00
-56.00	-65.00	7.00	85.00	29.00	40.00	-11.00
-76.00	-40.00	-47.00	67.00	17.00	39.00	-21.00
-79.00	20.00	-41.00	20.00	22.00	92.00	-11.00
-81.00	85.00	-1.00	24.00	30.00	84.00	-5.00
-56.00	138.00	-76.00	118.00	23.00	67.00	22.00
-38.00	151.00	-98.00	160.00	-9.00	13.00	34.00
-24.00	125.00	6.00	60.00	-22.00	-45.00	15.00
5.00	107.00	-17.00	55.00	-22.00	-111.00	6.00
18.00	63.00	-75.00	65.00	-24.00	-58.00	4.00
32.00	35.00	-156.00	26.00	-22.00	30.00	-2.00
45.00	9.00	-38.00	-66.00	-2.00	36.00	-1.00
56.00	-36.00	38.00	-75.00	-2.00	-65.00	-24.00
64.00	-92.00	136.00	-121.00	18.00	-30.00	-53.00
53.00	-147.00	148.00	-141.00	30.00	-19.00	-37.00
34.00	-182.00	237.00	-124.00	34.00	-22.00	3.00
27.00	-207.00	482.00	-79.00	2.00	17.00	11.00
30.00	-197.00	491.00	-24.00	-6.00	20.00	36.00
26.00	-139.00	394.00	18.00	0.00	1.00	27.00
25.00	-83.00	98.00	85.00	7.00	42.00	12.00
25.00	-29.00	-105.00	89.00	22.00	44.00	-18.00
13.00	42.00	-172.00	122.00	23.00	11.00	-22.00
-11.00	120.00	-241.00	213.00	28.00	-11.00	-19.00
-23.00	182.00	-313.00	202.00	27.00	-31.00	-19.00
-32.00	211.00	-326.00	76.00	41.00	28.00	-25.00
-31.00	181.00	-275.00	62.00	39.00	31.00	5.00
-32.00	102.00	-188.00	-8.00	24.00	34.00	12.00
-43.00	71.00	-53.00	-123.00	1.00	12.00	4.00
-48.00	68.00	118.00	-119.00	-15.00	-5.00	4.00
-24.00	75.00	425.00	-143.00	-5.00	6.00	0.00
-7.00	73.00	597.00	-164.00	1.00	-9.00	-7.00
9.00	49.00	366.00	-113.00	8.00	-2.00	-7.00
15.00	14.00	34.00	-57.00	10.00	24.00	-9.00
14.00	2.00	-350.00	-52.00	22.00	33.00	-15.00
32.00	7.00	-465.00	-68.00	36.00	25.00	-4.00
40.00	33.00	-432.00	-56.00	37.00	21.00	-9.00
47.00	36.00	-431.00	-38.00	42.00	19.00	-13.00
53.00	23.00	-241.00	-5.00	9.00	6.00	-3.00
66.00	17.00	-104.00	0.00	-24.00	4.00	9.00
74.00	6.00	-53.00	22.00	-20.00	30.00	14.00
58.00	-21.00	13.00	53.00	-12.00	27.00	29.00
31.00	-30.00	43.00	125.00	-13.00	11.00	27.00
-6.00	-9.00	42.00	101.00	-23.00	-15.00	42.00
-41.00	-34.00	-1.00	138.00	-2.00	-2.00	34.00
-68.00	-74.00	88.00	133.00	17.00	5.00	25.00
-42.00	-78.00	90.00	87.00	24.00	-15.00	2.00
-48.00	-91.00	40.00	77.00	13.00	32.00	-42.00
-57.00	-103.00	36.00	28.00	9.00	49.00	-33.00
-49.00	-57.00	107.00	-31.00	25.00	20.00	-30.00
-60.00	-61.00	153.00	-69.00	36.00	46.00	5.00
-48.00	-131.00	108.00	7.00	41.00	52.00	-4.00
-25.00	-159.00	89.00	-30.00	49.00	7.00	41.00
4.00	-149.00	117.00	-196.00	32.00	-60.00	4.00
-14.00	-88.00	118.00	-277.00	-3.00	-94.00	8.00
-16.00	-26.00	-8.00	-240.00	-16.00	-33.00	-5.00
29.00	73.00	-52.00	-170.00	-23.00	-41.00	-19.00
50.00	154.00	-40.00	-49.00	-17.00	-59.00	-13.00
50.00	234.00	-61.00	26.00	-17.00	-22.00	5.00
41.00	286.00	-65.00	42.00	-22.00	2.00	-9.00
18.00	288.00	-34.00	65.00	-1.00	31.00	-2.00
-10.00	260.00	-43.00	92.00	3.00	110.00	-6.00
-51.00	197.00	10.00	118.00	18.00	124.00	-4.00
-78.00	134.00	41.00	116.00	21.00	85.00	-1.00
-81.00	80.00	55.00	171.00	25.00	28.00	-19.00
-87.00	28.00	12.00	169.00	29.00	-39.00	-33.00
-73.00	28.00	-31.00	155.00	21.00	-118.00	-25.00
-55.00	0.00	-80.00	117.00	19.00	-99.00	-33.00
-38.00	-44.00	-68.00	76.00	14.00	-26.00	-13.00
-25.00	-63.00	-78.00	20.00	13.00	22.00	32.00
-25.00	-69.00	-75.00	-42.00	5.00	19.00	20.00
-21.00	-112.00	-89.00	-34.00	-4.00	19.00	23.00
-15.00	-166.00	139.00	16.00	7.00	65.00	12.00
0.00	-210.00	290.00	134.00	23.00	78.00	8.00
27.00	-197.00	364.00	190.00	28.00	6.00	23.00
52.00	-141.00	239.00	165.00	7.00	-10.00	5.00
70.00	-104.00	73.00	86.00	15.00	-8.00	-2.00
84.00	-49.00	-21.00	-27.00	28.00	44.00	-29.00
83.00	47.00	-105.00	-161.00	28.00	103.00	-33.00
75.00	114.00	-296.00	-157.00	21.00	74.00	-3.00
66.00	178.00	-241.00	-180.00	6.00	21.00	14.00
54.00	234.00	-129.00	-115.00	0.00	-29.00	14.00
57.00	218.00	65.00	-96.00	-5.00	-57.00	2.00
54.00	173.00	89.00	-96.00	26.00	-67.00	12.00
30.00	125.00	84.00	-83.00	25.00	-32.00	2.00
8.00	92.00	-76.00	-27.00	-11.00	-34.00	-23.00
-19.00	54.00	-140.00	-56.00	-19.00	-34.00	-29.00
-42.00	11.00	-133.00	-37.00	15.00	-7.00	5.00
-52.00	-18.00	-126.00	21.00	17.00	6.00	-7.00
-61.00	-40.00	-60.00	59.00	13.00	27.00	2.00
-39.00	-48.00	89.00	55.00	13.00	18.00	63.00
-24.00	-58.00	181.00	53.00	3.00	8.00	21.00
-19.00	-69.00	142.00	132.00	5.00	4.00	-7.00
-11.00	-88.00	97.00	147.00	6.00	8.00	-15.00
5.00	-88.00	48.00	160.00	10.00	47.00	-18.00
17.00	-124.00	18.00	169.00	13.00	57.00	-21.00
25.00	-139.00	-46.00	169.00	7.00	43.00	-14.00
29.00	-152.00	61.00	92.00	2.00	24.00	-3.00
18.00	-172.00	81.00	-10.00	-8.00	2.00	8.00
17.00	-148.00	53.00	-140.00	-18.00	-9.00	37.00
30.00	-113.00	19.00	-88.00	0.00	24.00	20.00
37.00	-66.00	3.00	-140.00	0.00	3.00	-33.00
31.00	-17.00	14.00	-196.00	-24.00	60.00	-44.00
23.00	17.00	24.00	-218.00	-8.00	65.00	-22.00
14.00	20.00	29.00	-122.00	19.00	53.00	-25.00
9.00	41.00	40.00	-6.00	33.00	-22.00	-12.00
21.00	68.00	82.00	13.00	28.00	-60.00	-10.00
8.00	90.00	108.00	-20.00	33.00	-44.00	-6.00
2.00	102.00	53.00	-72.00	48.00	-16.00	5.00
-15.00	90.00	-66.00	-85.00	45.00	-8.00	0.00
-9.00	98.00	-64.00	-44.00	45.00	3.00	8.00
26.00	123.00	281.00	39.00	52.00	16.00	16.00
23.00	157.00	449.00	134.00	22.00	10.00	6.00
18.00	171.00	429.00	147.00	-16.00	-16.00	-8.00
20.00	189.00	203.00	47.00	-7.00	0.00	-12.00
12.00	177.00	-80.00	22.00	3.00	13.00	8.00
-9.00	139.00	-345.00	-41.00	21.00	30.00	21.00
-38.00	125.00	-620.00	-100.00	41.00	18.00	14.00
-69.00	116.00	-830.00	-78.00	33.00	-20.00	6.00
-115.00	113.00	-786.00	-53.00	23.00	-35.00	2.00
-134.00	67.00	-472.00	11.00	22.00	-34.00	-9.00
-156.00	-9.00	-314.00	88.00	27.00	-9.00	-9.00
-173.00	-36.00	-143.00	56.00	24.00	22.00	2.00
-165.00	-48.00	-67.00	47.00	9.00	57.00	1.00
-139.00	-48.00	105.00	59.00	-18.00	74.00	-18.00
-96.00	-90.00	369.00	81.00	-30.00	74.00	-7.00
-59.00	-124.00	265.00	197.00	-14.00	79.00	-10.00
-27.00	-117.00	95.00	332.00	10.00	47.00	-6.00
2.00	-104.00	6.00	331.00	8.00	-27.00	-5.00
38.00	-66.00	-32.00	217.00	4.00	-116.00	-13.00
60.00	-44.00	63.00	61.00	4.00	-85.00	-7.00
56.00	-6.00	72.00	-76.00	-6.00	-81.00	-23.00
61.00	18.00	83.00	-208.00	4.00	-28.00	-25.00
51.00	50.00	187.00	-317.00	2.00	7.00	-5.00
56.00	39.00	213.00	-367.00	7.00	42.00	8.00
56.00	62.00	169.00	-409.00	9.00	28.00	18.00
54.00	70.00	97.00	-219.00	-4.00	-45.00	29.00
48.00	7.00	92.00	-37.00	-13.00	18.00	15.00
46.00	-57.00	155.00	81.00	-17.00	117.00	20.00
44.00	-83.00	115.00	150.00	-6.00	92.00	17.00
43.00	-51.00	33.00	148.00	1.00	82.00	23.00
43.00	-11.00	17.00	127.00	-1.00	-53.00	-18.00
45.00	49.00	16.00	99.00	3.00	-110.00	1.00
56.00	131.00	-9.00	58.00	7.00	-104.00	4.00
54.00	168.00	44.00	13.00	10.00	-108.00	-8.00
53.00	138.00	97.00	-54.00	18.00	12.00	-8.00
45.00	105.00	72.00	-49.00	2.00	13.00	3.00
35.00	83.00	-9.00	-39.00	6.00	28.00	6.00
27.00	73.00	-127.00	-6.00	7.00	52.00	2.00
13.00	57.00	-209.00	20.00	18.00	62.00	6.00
-3.00	26.00	-153.00	-20.00	30.00	66.00	0.00
-27.00	17.00	-103.00	-34.00	25.00	56.00	3.00
-30.00	2.00	-30.00	32.00	18.00	39.00	2.00
-20.00	-30.00	98.00	48.00	17.00	10.00	-10.00
-14.00	-50.00	227.00	48.00	7.00	-24.00	-13.00
-12.00	-61.00	222.00	15.00	7.00	-14.00	-19.00
-8.00	-65.00	190.00	26.00	30.00	36.00	-11.00
2.00	-63.00	125.00	22.00	31.00	45.00	3.00
14.00	-39.00	39.00	-51.00	25.00	65.00	10.00
13.00	-49.00	-45.00	-39.00	6.00	30.00	-5.00
12.00	-85.00	-33.00	77.00	11.00	-4.00	-22.00
13.00	-106.00	-165.00	217.00	13.00	6.00	-26.00
14.00	-137.00	-161.00	312.00	10.00	36.00	-24.00
23.00	-88.00	-82.00	272.00	9.00	38.00	-20.00
20.00	-52.00	-97.00	180.00	24.00	43.00	0.00
13.00	-126.00	-151.00	120.00	47.00	28.00	15.00
6.00	-162.00	-62.00	-7.00	44.00	15.00	18.00
-19.00	-118.00	192.00	-230.00	-35.00	-26.00	15.00
-42.00	-26.00	464.00	-367.00	-62.00	55.00	2.00
-56.00	2.00	352.00	-302.00	-39.00	63.00	10.00
-60.00	83.00	99.00	-121.00	-29.00	41.00	-1.00
-24.00	174.00	-68.00	20.00	-14.00	13.00	-3.00
3.00	231.00	-157.00	33.00	29.00	-43.00	6.00
37.00	221.00	-249.00	66.00	20.00	-104.00	-6.00
32.00	174.00	-309.00	68.00	-36.00	-154.00	-4.00
12.00	136.00	-254.00	159.00	-40.00	-76.00	-6.00
-1.00	99.00	-224.00	175.00	-12.00	-34.00	0.00
-35.00	75.00	-221.00	61.00	21.00	-12.00	-7.00
-63.00	27.00	-212.00	-43.00	55.00	6.00	-6.00
-72.00	-37.00	-102.00	-40.00	75.00	21.00	18.00
-67.00	-50.00	-12.00	-35.00	77.00	31.00	23.00
-64.00	-7.00	37.00	-116.00	73.00	49.00	15.00
-56.00	50.00	73.00	-206.00	70.00	37.00	-8.00
-7.00	73.00	113.00	-232.00	37.00	14.00	-7.00
26.00	85.00	147.00	-217.00	-2.00	-20.00	-6.00
55.00	131.00	85.00	-138.00	-3.00	-32.00	-7.00
79.00	145.00	-22.00	-20.00	17.00	-30.00	-6.00
72.00	105.00	45.00	29.00	26.00	36.00	-16.00
46.00	42.00	115.00	50.00	24.00	44.00	-25.00
28.00	9.00	146.00	41.00	8.00	35.00	-15.00
-15.00	-8.00	107.00	66.00	1.00	48.00	-7.00
-60.00	-32.00	16.00	52.00	3.00	-9.00	-9.00
-105.00	-39.00	2.00	37.00	3.00	-65.00	-1.00
-112.00	-57.00	-30.00	30.00	10.00	-17.00	24.00
-122.00	-99.00	-9.00	107.00	9.00	-7.00	26.00
-132.00	-150.00	48.00	151.00	3.00	3.00	31.00
-103.00	-195.00	103.00	202.00	-5.00	10.00	9.00
-52.00	-169.00	141.00	280.00	-8.00	32.00	-5.00
-20.00	-108.00	19.00	249.00	-2.00	51.00	-5.00
2.00	-81.00	-54.00	177.00	1.00	49.00	-7.00
27.00	-53.00	-161.00	82.00	6.00	36.00	-21.00
38.00	2.00	-170.00	-43.00	4.00	35.00	-27.00
34.00	65.00	-179.00	-242.00	8.00	82.00	21.00
19.00	84.00	-188.00	-224.00	11.00	82.00	66.00
15.00	28.00	-179.00	-157.00	11.00	23.00	59.00
27.00	10.00	-121.00	-137.00	18.00	7.00	49.00
40.00	6.00	-45.00	-82.00	10.00	-16.00	18.00
64.00	10.00	-14.00	-32.00	2.00	-53.00	-40.00
87.00	6.00	1.00	-29.00	19.00	-77.00	-35.00
105.00	6.00	57.00	-58.00	6.00	-71.00	-22.00
115.00	53.00	139.00	-41.00	-25.00	-43.00	-20.00
114.00	96.00	243.00	-50.00	-23.00	-15.00	-8.00
104.00	119.00	330.00	-8.00	-8.00	5.00	-5.00
86.00	87.00	347.00	31.00	-5.00	18.00	-8.00
62.00	59.00	275.00	40.00	9.00	30.00	-9.00
22.00	61.00	222.00	-30.00	19.00	39.00	-11.00
-21.00	44.00	81.00	-9.00	34.00	38.00	-6.00
-57.00	17.00	-2.00	-42.00	43.00	76.00	1.00
-99.00	34.00	-25.00	-6.00	34.00	109.00	-3.00
-126.00	43.00	-72.00	51.00	-10.00	49.00	2.00
-118.00	19.00	-230.00	116.00	-54.00	-22.00	1.00
-97.00	-31.00	-368.00	157.00	-57.00	-88.00	-5.00
-71.00	-82.00	-469.00	200.00	-38.00	-80.00	-14.00
-47.00	-52.00	-377.00	187.00	2.00	-90.00	-25.00
-34.00	-31.00	-255.00	132.00	7.00	-38.00	-16.00
-24.00	-47.00	-119.00	156.00	25.00	6.00	-27.00
-17.00	-48.00	37.00	62.00	45.00	9.00	-10.00
-2.00	16.00	269.00	-46.00	51.00	-8.00	24.00
13.00	121.00	551.00	-201.00	39.00	-10.00	-10.00
28.00	181.00	555.00	-229.00	23.00	14.00	22.00
43.00	149.00	439.00	-215.00	23.00	33.00	22.00
39.00	83.00	182.00	-152.00	30.00	48.00	9.00
37.00	-49.00	16.00	-17.00	25.00	103.00	3.00
37.00	-135.00	-91.00	82.00	18.00	103.00	1.00
27.00	-146.00	-233.00	76.00	11.00	79.00	12.00
12.00	-84.00	-395.00	110.00	8.00	38.00	14.00
3.00	-24.00	-376.00	124.00	3.00	-23.00	1.00
4.00	27.00	-220.00	83.00	-20.00	-123.00	-19.00
1.00	101.00	-163.00	27.00	-11.00	-92.00	-21.00
-2.00	185.00	-70.00	-98.00	-2.00	-8.00	-15.00
-6.00	219.00	76.00	-120.00	0.00	21.00	-12.00
6.00	197.00	161.00	-52.00	13.00	17.00	-10.00
25.00	143.00	360.00	-16.00	20.00	14.00	3.00
44.00	87.00	370.00	51.00	24.00	32.00	16.00
71.00	13.00	241.00	91.00	-14.00	31.00	28.00
85.00	-105.00	91.00	75.00	-42.00	11.00	28.00
84.00	-158.00	-27.00	38.00	-75.00	11.00	10.00
