
-15.00	-37.00	-11.00	61.00	6.00	-1.00	-3.00
-13.00	-27.00	-24.00	76.00	1.00	35.00	-1.00
-8.00	19.00	-39.00	73.00	10.00	14.00	6.00
-6.00	58.00	-49.00	61.00	39.00	-50.00	1.00
-4.00	58.00	-14.00	51.00	14.00	-16.00	-3.00
-1.00	16.00	59.00	42.00	0.00	-18.00	-3.00
-4.00	-9.00	98.00	28.00	-8.00	-9.00	4.00
-3.00	-25.00	127.00	3.00	-5.00	-15.00	8.00
-10.00	-5.00	184.00	3.00	10.00	-26.00	6.00
-11.00	20.00	174.00	11.00	2.00	45.00	-1.00
-5.00	44.00	116.00	8.00	19.00	44.00	-1.00
-2.00	48.00	71.00	26.00	34.00	4.00	1.00
-5.00	26.00	-5.00	48.00	33.00	7.00	-13.00
2.00	14.00	-109.00	54.00	33.00	7.00	-25.00
-6.00	-12.00	-204.00	86.00	33.00	3.00	-14.00
-12.00	-18.00	-212.00	94.00	40.00	-6.00	-6.00
-4.00	12.00	-168.00	103.00	34.00	-5.00	-1.00
-5.00	12.00	-92.00	88.00	17.00	3.00	2.00
-2.00	-40.00	-29.00	64.00	-8.00	19.00	2.00
17.00	-107.00	44.00	40.00	-12.00	22.00	-12.00
26.00	-105.00	88.00	13.00	-7.00	32.00	-13.00
20.00	-51.00	95.00	-16.00	-6.00	78.00	-3.00
2.00	27.00	67.00	-23.00	13.00	52.00	11.00
4.00	68.00	17.00	-29.00	13.00	25.00	12.00
5.00	107.00	-16.00	-32.00	2.00	-1.00	2.00
9.00	123.00	-36.00	-46.00	10.00	-8.00	-3.00
1.00	118.00	-71.00	-43.00	-2.00	5.00	-3.00
-3.00	136.00	-102.00	-45.00	-28.00	49.00	-4.00
2.00	147.00	-100.00	-37.00	-12.00	17.00	2.00
-12.00	101.00	-60.00	-16.00	7.00	2.00	-9.00
-10.00	20.00	1.00	13.00	8.00	-14.00	-21.00
2.00	-64.00	61.00	39.00	19.00	-22.00	-22.00
6.00	-85.00	72.00	76.00	22.00	-33.00	-10.00
8.00	-72.00	90.00	106.00	16.00	-14.00	4.00
12.00	-16.00	102.00	94.00	26.00	-9.00	-2.00
-19.00	32.00	111.00	97.00	21.00	1.00	-1.00
-32.00	57.00	101.00	97.00	12.00	8.00	-5.00
-38.00	68.00	94.00	91.00	4.00	12.00	-13.00
-41.00	75.00	54.00	52.00	7.00	-12.00	-8.00
-13.00	64.00	-4.00	-22.00	12.00	-9.00	16.00
-14.00	36.00	-58.00	-117.00	-3.00	-2.00	18.00
1.00	16.00	-138.00	-204.00	-17.00	5.00	2.00
15.00	-4.00	-150.00	-229.00	-19.00	18.00	9.00
4.00	-16.00	-97.00	-214.00	0.00	1.00	19.00
1.00	-21.00	-47.00	-188.00	13.00	10.00	36.00
0.00	-43.00	-26.00	-133.00	9.00	9.00	41.00
-1.00	-94.00	22.00	-57.00	8.00	13.00	27.00
-4.00	-129.00	38.00	-2.00	9.00	15.00	25.00
-7.00	-120.00	37.00	15.00	19.00	9.00	22.00
-3.00	-74.00	12.00	-8.00	24.00	24.00	17.00
1.00	-17.00	-36.00	-16.00	24.00	28.00	12.00
0.00	10.00	-56.00	-8.00	15.00	26.00	6.00
0.00	33.00	-77.00	0.00	13.00	14.00	-8.00
-1.00	10.00	-84.00	27.00	19.00	6.00	-18.00
13.00	-16.00	-64.00	50.00	22.00	4.00	-10.00
18.00	-12.00	-45.00	54.00	13.00	-2.00	-14.00
17.00	56.00	-31.00	54.00	9.00	11.00	-8.00
6.00	136.00	-14.00	51.00	9.00	37.00	-15.00
-8.00	146.00	0.00	59.00	0.00	28.00	-19.00
-17.00	115.00	10.00	74.00	0.00	6.00	-10.00
-14.00	66.00	13.00	88.00	-3.00	0.00	-12.00
-1.00	-20.00	27.00	91.00	-2.00	4.00	-13.00
6.00	-110.00	60.00	99.00	-6.00	5.00	-16.00
18.00	-109.00	96.00	102.00	-10.00	5.00	-18.00
23.00	-49.00	129.00	89.00	-6.00	12.00	-18.00
22.00	21.00	140.00	64.00	-4.00	14.00	-21.00
21.00	112.00	140.00	40.00	1.00	0.00	-23.00
15.00	119.00	124.00	22.00	10.00	5.00	-10.00
11.00	74.00	108.00	25.00	19.00	14.00	7.00
13.00	18.00	90.00	31.00	18.00	14.00	4.00
28.00	-24.00	54.00	35.00	20.00	7.00	-1.00
11.00	-38.00	-40.00	35.00	26.00	7.00	-8.00
-15.00	-20.00	-95.00	66.00	24.00	13.00	-5.00
-22.00	45.00	-110.00	82.00	23.00	-2.00	-2.00
-24.00	89.00	-89.00	81.00	19.00	12.00	-1.00
-30.00	65.00	-65.00	49.00	38.00	-1.00	6.00
-19.00	18.00	-29.00	2.00	51.00	-6.00	-2.00
0.00	-28.00	2.00	-40.00	48.00	0.00	2.00
-6.00	-58.00	48.00	-83.00	39.00	-1.00	17.00
8.00	-55.00	70.00	-108.00	26.00	2.00	14.00
12.00	-42.00	70.00	-115.00	13.00	3.00	-20.00
6.00	2.00	57.00	-109.00	-6.00	30.00	-3.00
-3.00	61.00	38.00	-83.00	-4.00	26.00	11.00
-6.00	81.00	4.00	-62.00	-5.00	10.00	12.00
-13.00	68.00	-56.00	-63.00	-6.00	7.00	8.00
0.00	65.00	-102.00	-43.00	6.00	-7.00	2.00
0.00	64.00	-126.00	1.00	15.00	-3.00	-6.00
-15.00	49.00	-121.00	8.00	12.00	-4.00	-13.00
-10.00	45.00	-83.00	8.00	12.00	7.00	-16.00
0.00	3.00	-62.00	17.00	16.00	-4.00	0.00
7.00	-45.00	-38.00	29.00	13.00	-6.00	5.00
8.00	-90.00	-11.00	57.00	15.00	11.00	10.00
6.00	-108.00	3.00	91.00	0.00	47.00	14.00
3.00	-78.00	39.00	81.00	-9.00	24.00	26.00
8.00	-33.00	60.00	29.00	-13.00	-16.00	26.00
12.00	43.00	55.00	-2.00	-12.00	-27.00	6.00
4.00	94.00	50.00	-25.00	-10.00	-12.00	-24.00
8.00	88.00	27.00	-50.00	0.00	-1.00	-36.00
-9.00	66.00	19.00	-51.00	11.00	10.00	-29.00
-14.00	48.00	-2.00	-45.00	4.00	11.00	-14.00
-21.00	23.00	-17.00	-48.00	-14.00	8.00	-9.00
-19.00	-6.00	-18.00	-53.00	-21.00	9.00	-1.00
-29.00	-25.00	-29.00	-45.00	-10.00	10.00	5.00
-35.00	-14.00	-49.00	-15.00	7.00	14.00	6.00
-24.00	-1.00	-65.00	6.00	27.00	20.00	7.00
-7.00	24.00	-65.00	5.00	33.00	19.00	6.00
-1.00	44.00	-50.00	16.00	33.00	18.00	10.00
4.00	59.00	-41.00	24.00	24.00	20.00	11.00
0.00	39.00	7.00	27.00	15.00	23.00	8.00
1.00	-17.00	60.00	38.00	6.00	30.00	6.00
8.00	-91.00	74.00	28.00	5.00	8.00	2.00
15.00	-129.00	67.00	25.00	7.00	-4.00	7.00
21.00	-97.00	57.00	32.00	8.00	5.00	15.00
14.00	-29.00	48.00	39.00	16.00	4.00	11.00
10.00	39.00	32.00	34.00	16.00	12.00	-13.00
9.00	81.00	18.00	38.00	17.00	5.00	-20.00
14.00	95.00	-2.00	19.00	15.00	1.00	-6.00
12.00	79.00	-24.00	-14.00	15.00	0.00	1.00
-2.00	45.00	-11.00	-26.00	8.00	9.00	-4.00
-1.00	43.00	13.00	-17.00	1.00	38.00	-10.00
10.00	54.00	34.00	-14.00	4.00	42.00	-21.00
14.00	71.00	48.00	2.00	15.00	5.00	-21.00
18.00	62.00	34.00	27.00	20.00	-7.00	-2.00
25.00	34.00	33.00	59.00	9.00	8.00	-7.00
20.00	13.00	6.00	76.00	15.00	-2.00	-15.00
12.00	4.00	-11.00	82.00	22.00	-2.00	-16.00
-3.00	3.00	-18.00	71.00	10.00	18.00	-8.00
-16.00	15.00	-38.00	50.00	19.00	22.00	0.00
-18.00	27.00	-61.00	35.00	47.00	2.00	7.00
-23.00	25.00	-56.00	32.00	38.00	-19.00	10.00
-28.00	6.00	-41.00	15.00	25.00	-4.00	-6.00
-39.00	-5.00	-25.00	9.00	24.00	5.00	-16.00
-38.00	-23.00	-7.00	18.00	24.00	0.00	-21.00
-36.00	-38.00	-7.00	16.00	19.00	-2.00	-22.00
-24.00	-62.00	-10.00	7.00	12.00	-4.00	-16.00
-26.00	-92.00	21.00	-4.00	3.00	-3.00	-6.00
-22.00	-90.00	37.00	-15.00	-2.00	-1.00	4.00
-8.00	-80.00	55.00	-16.00	0.00	0.00	11.00
8.00	-25.00	61.00	17.00	-3.00	7.00	12.00
8.00	39.00	42.00	11.00	0.00	15.00	18.00
12.00	101.00	29.00	-6.00	-3.00	28.00	27.00
1.00	99.00	29.00	-7.00	-18.00	54.00	25.00
9.00	68.00	24.00	-24.00	-8.00	44.00	14.00
6.00	45.00	14.00	-27.00	24.00	-6.00	17.00
13.00	38.00	-19.00	-20.00	31.00	-20.00	16.00
5.00	52.00	-45.00	-35.00	11.00	-14.00	15.00
5.00	60.00	-37.00	-51.00	9.00	-17.00	2.00
6.00	52.00	-5.00	-43.00	0.00	-8.00	-5.00
6.00	24.00	11.00	-47.00	0.00	-1.00	-25.00
7.00	-3.00	40.00	-53.00	0.00	4.00	-25.00
-3.00	-5.00	70.00	-40.00	-6.00	6.00	-29.00
-1.00	14.00	72.00	-25.00	-10.00	13.00	-22.00
5.00	39.00	44.00	-31.00	2.00	19.00	-19.00
10.00	26.00	43.00	-28.00	16.00	28.00	-6.00
17.00	-2.00	56.00	3.00	24.00	31.00	-4.00
12.00	-29.00	39.00	33.00	38.00	10.00	-12.00
0.00	-61.00	13.00	51.00	28.00	9.00	-7.00
1.00	-77.00	26.00	47.00	4.00	5.00	-6.00
1.00	-52.00	55.00	50.00	-5.00	-16.00	-11.00
0.00	20.00	68.00	44.00	-15.00	-12.00	-2.00
-1.00	91.00	39.00	37.00	-14.00	3.00	17.00
2.00	125.00	-20.00	16.00	-8.00	-2.00	23.00
-8.00	133.00	-105.00	-4.00	4.00	-6.00	23.00
-6.00	90.00	-176.00	-18.00	0.00	33.00	24.00
0.00	21.00	-234.00	-17.00	13.00	45.00	35.00
8.00	-17.00	-225.00	-21.00	23.00	29.00	39.00
15.00	-34.00	-173.00	-27.00	26.00	14.00	31.00
22.00	-33.00	-94.00	-13.00	23.00	25.00	23.00
16.00	-13.00	-28.00	1.00	22.00	20.00	3.00
2.00	11.00	23.00	4.00	22.00	7.00	-18.00
0.00	25.00	62.00	21.00	20.00	11.00	-8.00
-3.00	36.00	64.00	32.00	19.00	7.00	-11.00
3.00	51.00	54.00	42.00	19.00	8.00	-20.00
6.00	39.00	26.00	35.00	9.00	22.00	-11.00
1.00	25.00	-10.00	28.00	9.00	5.00	-6.00
-5.00	25.00	-26.00	15.00	10.00	-7.00	-5.00
-13.00	2.00	-32.00	3.00	21.00	7.00	-6.00
-11.00	-63.00	-36.00	-6.00	16.00	11.00	-10.00
-4.00	-75.00	-48.00	13.00	11.00	-9.00	-14.00
-6.00	-46.00	-36.00	33.00	10.00	-17.00	2.00
-6.00	-17.00	-10.00	58.00	-11.00	3.00	11.00
-6.00	33.00	42.00	66.00	-12.00	-8.00	4.00
-6.00	72.00	71.00	55.00	-9.00	-11.00	-3.00
-4.00	76.00	55.00	31.00	-15.00	4.00	-32.00
-4.00	37.00	27.00	14.00	-8.00	3.00	-61.00
1.00	4.00	7.00	5.00	2.00	12.00	-36.00
2.00	-7.00	-28.00	-8.00	11.00	16.00	-12.00
12.00	2.00	-57.00	-9.00	9.00	10.00	0.00
16.00	0.00	-46.00	2.00	4.00	3.00	-1.00
6.00	-5.00	-28.00	30.00	-4.00	-4.00	-9.00
1.00	-16.00	-17.00	27.00	4.00	-10.00	-10.00
-1.00	-29.00	-3.00	21.00	11.00	-2.00	-5.00
-21.00	-46.00	37.00	9.00	17.00	9.00	-2.00
-22.00	-47.00	59.00	-8.00	17.00	24.00	-1.00
-9.00	-32.00	38.00	-18.00	30.00	23.00	2.00
-3.00	-11.00	10.00	7.00	55.00	-1.00	1.00
8.00	19.00	16.00	26.00	51.00	3.00	0.00
19.00	52.00	54.00	12.00	41.00	11.00	12.00
26.00	56.00	76.00	-3.00	28.00	18.00	18.00
16.00	29.00	73.00	17.00	24.00	17.00	13.00
4.00	20.00	65.00	6.00	27.00	7.00	23.00
-1.00	10.00	61.00	-15.00	22.00	7.00	19.00
-17.00	-15.00	64.00	-23.00	20.00	8.00	13.00
-40.00	-29.00	55.00	-51.00	23.00	7.00	11.00
-39.00	-56.00	40.00	-65.00	21.00	10.00	9.00
-36.00	-52.00	40.00	-13.00	25.00	23.00	10.00
-34.00	-33.00	43.00	7.00	36.00	27.00	7.00
-29.00	12.00	35.00	2.00	25.00	15.00	9.00
-24.00	48.00	20.00	13.00	14.00	12.00	6.00
-4.00	78.00	34.00	22.00	2.00	16.00	-1.00
13.00	80.00	39.00	14.00	-10.00	2.00	-9.00
19.00	85.00	29.00	-21.00	-9.00	-10.00	-19.00
30.00	81.00	17.00	-60.00	-18.00	-10.00	-12.00
33.00	62.00	21.00	-74.00	-29.00	12.00	-7.00
20.00	60.00	18.00	-74.00	-29.00	21.00	-6.00
15.00	48.00	-10.00	-76.00	6.00	-8.00	-4.00
7.00	19.00	-41.00	-29.00	0.00	-1.00	-6.00
3.00	-21.00	-51.00	21.00	-9.00	-5.00	-2.00
2.00	-48.00	-40.00	6.00	-4.00	-3.00	-11.00
12.00	-44.00	-41.00	-15.00	15.00	12.00	-1.00
19.00	-16.00	-43.00	6.00	23.00	30.00	4.00
17.00	33.00	-30.00	36.00	31.00	39.00	6.00
19.00	76.00	-23.00	38.00	29.00	20.00	-2.00
7.00	102.00	4.00	41.00	20.00	0.00	-3.00
13.00	62.00	34.00	64.00	9.00	8.00	6.00
2.00	-15.00	36.00	71.00	5.00	15.00	4.00
-18.00	-81.00	19.00	60.00	8.00	17.00	-2.00
-24.00	-71.00	3.00	55.00	9.00	18.00	-6.00
-15.00	-31.00	3.00	63.00	5.00	18.00	-8.00
-8.00	38.00	3.00	68.00	3.00	11.00	-9.00
-10.00	88.00	3.00	48.00	6.00	2.00	-4.00
-16.00	136.00	0.00	29.00	22.00	-2.00	-1.00
-21.00	123.00	-40.00	3.00	32.00	-11.00	-4.00
-21.00	66.00	-71.00	-4.00	22.00	-13.00	-16.00
-23.00	17.00	-100.00	-4.00	21.00	-6.00	-15.00
-25.00	9.00	-114.00	20.00	26.00	-1.00	-2.00
-21.00	4.00	-102.00	41.00	24.00	-1.00	-5.00
-17.00	-5.00	-92.00	73.00	15.00	0.00	-7.00
-13.00	-2.00	-82.00	67.00	10.00	9.00	3.00
-9.00	-10.00	-61.00	44.00	-1.00	34.00	12.00
-1.00	-33.00	-47.00	8.00	-15.00	40.00	-8.00
13.00	-58.00	-31.00	-27.00	-11.00	14.00	-9.00
7.00	-131.00	-14.00	-52.00	-9.00	12.00	-2.00
8.00	-186.00	9.00	-70.00	2.00	6.00	-2.00
3.00	-123.00	31.00	-80.00	8.00	2.00	-4.00
1.00	-17.00	46.00	-81.00	13.00	-2.00	-4.00
2.00	84.00	57.00	-59.00	21.00	-2.00	-6.00
-1.00	166.00	105.00	-38.00	21.00	0.00	-11.00
0.00	216.00	89.00	-18.00	21.00	0.00	8.00
2.00	162.00	65.00	7.00	20.00	1.00	16.00
2.00	93.00	43.00	26.00	18.00	2.00	14.00
-2.00	39.00	46.00	45.00	13.00	4.00	15.00
2.00	15.00	28.00	59.00	8.00	5.00	22.00
2.00	2.00	19.00	53.00	9.00	0.00	11.00
4.00	-21.00	24.00	60.00	3.00	5.00	6.00
6.00	-25.00	24.00	45.00	-1.00	-2.00	11.00
8.00	-33.00	17.00	25.00	-3.00	-2.00	7.00
-5.00	-62.00	10.00	14.00	-3.00	3.00	3.00
2.00	-75.00	14.00	1.00	-6.00	11.00	0.00
0.00	-85.00	-3.00	-28.00	-6.00	28.00	0.00
-5.00	-80.00	-20.00	-46.00	-2.00	25.00	-1.00
1.00	-70.00	-25.00	-43.00	-2.00	44.00	0.00
2.00	33.00	-39.00	-51.00	4.00	46.00	3.00
7.00	81.00	-43.00	-49.00	22.00	20.00	5.00
8.00	111.00	-40.00	-37.00	31.00	4.00	9.00
6.00	133.00	-59.00	-25.00	32.00	11.00	6.00
4.00	109.00	-76.00	-16.00	19.00	16.00	-3.00
5.00	57.00	-45.00	1.00	6.00	14.00	-5.00
4.00	0.00	-10.00	21.00	-1.00	-1.00	-10.00
7.00	-4.00	14.00	35.00	-14.00	7.00	-6.00
5.00	20.00	24.00	53.00	-11.00	-3.00	-6.00
4.00	26.00	35.00	71.00	2.00	-8.00	-13.00
1.00	4.00	39.00	96.00	14.00	-3.00	-9.00
2.00	0.00	40.00	101.00	19.00	-5.00	-10.00
-8.00	10.00	41.00	87.00	32.00	-7.00	-13.00
-6.00	19.00	52.00	61.00	33.00	4.00	-5.00
-3.00	31.00	33.00	33.00	31.00	14.00	-4.00
1.00	34.00	7.00	-8.00	25.00	10.00	5.00
4.00	32.00	14.00	-30.00	20.00	14.00	13.00
-2.00	24.00	26.00	-51.00	6.00	24.00	8.00
-8.00	16.00	48.00	-64.00	9.00	15.00	-9.00
-9.00	1.00	75.00	-56.00	23.00	-9.00	1.00
-10.00	-40.00	80.00	-41.00	14.00	-1.00	10.00
5.00	-75.00	42.00	-42.00	-5.00	4.00	12.00
8.00	-63.00	25.00	-40.00	-14.00	0.00	12.00
6.00	-50.00	9.00	-20.00	-2.00	-2.00	19.00
3.00	-40.00	-8.00	18.00	20.00	-4.00	19.00
11.00	-9.00	-16.00	42.00	30.00	9.00	22.00
7.00	32.00	-44.00	41.00	39.00	14.00	16.00
2.00	8.00	-87.00	24.00	54.00	5.00	5.00
2.00	-36.00	-89.00	36.00	48.00	-2.00	2.00
2.00	-26.00	-76.00	50.00	33.00	6.00	2.00
2.00	11.00	-16.00	65.00	21.00	10.00	-14.00
3.00	23.00	43.00	67.00	7.00	19.00	-7.00
0.00	47.00	62.00	56.00	-3.00	20.00	-10.00
2.00	97.00	50.00	29.00	0.00	12.00	-10.00
-9.00	123.00	26.00	0.00	-8.00	1.00	-13.00
-13.00	87.00	-10.00	-11.00	-5.00	-16.00	-7.00
-8.00	50.00	-47.00	-16.00	-3.00	-9.00	0.00
-8.00	1.00	-80.00	-25.00	-7.00	4.00	4.00
-10.00	-45.00	-87.00	-31.00	-8.00	15.00	-2.00
-3.00	-68.00	-75.00	-24.00	-11.00	42.00	-14.00
-13.00	-63.00	-33.00	-22.00	-12.00	34.00	-15.00
-15.00	-47.00	35.00	-12.00	-10.00	16.00	-12.00
-8.00	-33.00	80.00	8.00	-2.00	9.00	-3.00
-11.00	-5.00	96.00	6.00	7.00	3.00	-7.00
-4.00	40.00	64.00	3.00	8.00	7.00	-7.00
-8.00	66.00	11.00	-3.00	5.00	15.00	-15.00
-3.00	80.00	-47.00	-4.00	4.00	9.00	-27.00
11.00	58.00	-64.00	-6.00	5.00	14.00	-20.00
10.00	27.00	-79.00	-11.00	12.00	17.00	0.00
14.00	15.00	-92.00	-8.00	19.00	6.00	-4.00
9.00	11.00	-112.00	9.00	12.00	3.00	-9.00
-2.00	19.00	-104.00	17.00	9.00	4.00	-21.00
-2.00	46.00	-58.00	5.00	11.00	11.00	-29.00
-5.00	50.00	-2.00	-4.00	11.00	13.00	-21.00
-6.00	24.00	37.00	-12.00	32.00	8.00	-10.00
-9.00	7.00	67.00	-7.00	36.00	13.00	0.00
-2.00	-2.00	94.00	3.00	27.00	15.00	5.00
-3.00	16.00	113.00	26.00	15.00	13.00	15.00
-2.00	37.00	100.00	56.00	7.00	12.00	35.00
3.00	54.00	72.00	97.00	0.00	12.00	45.00
3.00	71.00	33.00	72.00	5.00	7.00	37.00
-4.00	84.00	1.00	27.00	9.00	-13.00	43.00
-6.00	69.00	-9.00	-4.00	6.00	-24.00	45.00
-1.00	14.00	-21.00	-6.00	8.00	-12.00	28.00
1.00	-49.00	-30.00	1.00	15.00	-5.00	14.00
-1.00	-104.00	-39.00	11.00	17.00	26.00	11.00
10.00	-117.00	-30.00	-10.00	0.00	63.00	0.00
9.00	-116.00	-20.00	-37.00	-2.00	60.00	-1.00
4.00	-72.00	-11.00	-43.00	24.00	12.00	2.00
1.00	-16.00	-6.00	-23.00	27.00	-6.00	-5.00
0.00	25.00	24.00	6.00	11.00	8.00	-8.00
-2.00	14.00	77.00	46.00	1.00	8.00	-28.00
-4.00	-16.00	95.00	81.00	-11.00	-2.00	-10.00
-7.00	7.00	96.00	62.00	-21.00	-2.00	0.00
-7.00	45.00	117.00	18.00	-19.00	-7.00	4.00
-11.00	83.00	123.00	5.00	-20.00	-9.00	6.00
-4.00	36.00	88.00	10.00	-17.00	-16.00	17.00
-5.00	-43.00	29.00	18.00	-6.00	-14.00	13.00
-5.00	-73.00	-16.00	19.00	-5.00	-13.00	-6.00
-2.00	-53.00	-51.00	-15.00	-8.00	-9.00	-15.00
-3.00	5.00	-85.00	-39.00	-4.00	-5.00	-12.00
2.00	76.00	-123.00	-26.00	22.00	0.00	-8.00
6.00	140.00	-147.00	-45.00	39.00	12.00	-13.00
2.00	190.00	-107.00	-87.00	53.00	19.00	-11.00
3.00	197.00	-52.00	-127.00	51.00	28.00	-5.00
3.00	169.00	-20.00	-157.00	33.00	33.00	-5.00
-3.00	122.00	14.00	-142.00	26.00	26.00	4.00
-7.00	96.00	25.00	-84.00	25.00	19.00	7.00
-2.00	62.00	55.00	-18.00	18.00	29.00	7.00
-2.00	43.00	57.00	48.00	4.00	28.00	0.00
0.00	23.00	37.00	89.00	4.00	2.00	-8.00
-2.00	4.00	-6.00	85.00	12.00	-14.00	0.00
-1.00	-23.00	-45.00	62.00	11.00	2.00	5.00
-3.00	-45.00	-64.00	51.00	7.00	7.00	1.00
1.00	-68.00	-65.00	46.00	10.00	9.00	1.00
9.00	-131.00	-54.00	-6.00	12.00	11.00	-6.00
12.00	-159.00	-47.00	-35.00	10.00	12.00	-15.00
7.00	-137.00	-48.00	-51.00	7.00	11.00	-11.00
-14.00	-89.00	-38.00	-45.00	11.00	15.00	-15.00
-15.00	-53.00	-13.00	-15.00	23.00	14.00	-7.00
-11.00	4.00	4.00	16.00	23.00	11.00	-2.00
-7.00	25.00	10.00	46.00	24.00	6.00	2.00
-8.00	35.00	20.00	67.00	14.00	3.00	19.00
-8.00	72.00	78.00	84.00	6.00	3.00	21.00
-4.00	75.00	126.00	102.00	19.00	4.00	19.00
-7.00	73.00	132.00	110.00	28.00	2.00	13.00
-4.00	58.00	92.00	93.00	24.00	-1.00	8.00
-2.00	24.00	41.00	75.00	17.00	-3.00	-6.00
3.00	15.00	-5.00	71.00	8.00	3.00	-21.00
4.00	32.00	-52.00	84.00	-2.00	9.00	-29.00
7.00	25.00	-87.00	64.00	-15.00	0.00	-24.00
1.00	16.00	-89.00	46.00	-16.00	-1.00	-13.00
-1.00	10.00	-91.00	28.00	-18.00	-1.00	-7.00
4.00	26.00	-64.00	11.00	-13.00	4.00	-20.00
4.00	68.00	-25.00	-8.00	3.00	19.00	-26.00
5.00	67.00	7.00	-15.00	25.00	16.00	-15.00
5.00	26.00	54.00	-36.00	26.00	10.00	-6.00
4.00	-6.00	53.00	-55.00	17.00	5.00	12.00
2.00	-26.00	32.00	-56.00	14.00	10.00	25.00
5.00	-36.00	18.00	-43.00	19.00	12.00	25.00
7.00	-63.00	12.00	-30.00	25.00	2.00	15.00
4.00	-96.00	7.00	-31.00	26.00	-6.00	10.00
4.00	-130.00	20.00	-17.00	24.00	1.00	10.00
2.00	-161.00	40.00	-6.00	9.00	10.00	21.00
-4.00	-139.00	55.00	-10.00	-1.00	14.00	28.00
-3.00	-49.00	39.00	2.00	5.00	16.00	28.00
-6.00	48.00	34.00	33.00	18.00	15.00	14.00
-5.00	115.00	35.00	42.00	19.00	12.00	3.00
0.00	159.00	39.00	22.00	3.00	15.00	0.00
-3.00	172.00	6.00	11.00	-9.00	8.00	-2.00
-11.00	157.00	-12.00	-2.00	-3.00	9.00	-14.00
-7.00	105.00	-25.00	-9.00	12.00	9.00	-27.00
-6.00	51.00	-36.00	2.00	20.00	7.00	-21.00
-14.00	4.00	-41.00	4.00	18.00	14.00	-16.00
-18.00	-3.00	-27.00	31.00	23.00	16.00	-11.00
-13.00	3.00	-35.00	52.00	15.00	4.00	2.00
-9.00	2.00	-41.00	35.00	4.00	-1.00	3.00
-15.00	14.00	-50.00	14.00	-4.00	2.00	11.00
-9.00	31.00	-30.00	27.00	4.00	20.00	14.00
-7.00	17.00	9.00	70.00	-6.00	42.00	14.00
0.00	-6.00	73.00	114.00	-3.00	38.00	23.00
5.00	-20.00	133.00	91.00	5.00	13.00	13.00
7.00	-41.00	123.00	42.00	17.00	-20.00	12.00
10.00	-116.00	111.00	-24.00	28.00	-16.00	29.00
13.00	-174.00	95.00	-40.00	45.00	-2.00	26.00
10.00	-161.00	71.00	-59.00	34.00	2.00	28.00
3.00	-107.00	29.00	-86.00	24.00	2.00	25.00
8.00	-42.00	-40.00	-108.00	1.00	9.00	1.00
12.00	33.00	-89.00	-94.00	-21.00	16.00	-23.00
7.00	78.00	-131.00	-73.00	-45.00	27.00	-11.00
10.00	146.00	-169.00	-66.00	-31.00	14.00	-13.00
4.00	117.00	-200.00	-70.00	-8.00	3.00	-36.00
7.00	25.00	-196.00	-74.00	16.00	12.00	-36.00
10.00	6.00	-164.00	-62.00	38.00	7.00	-27.00
8.00	44.00	-111.00	-75.00	40.00	-3.00	-10.00
9.00	87.00	-51.00	-68.00	20.00	-5.00	5.00
11.00	80.00	-8.00	-56.00	-2.00	7.00	24.00
7.00	82.00	33.00	-49.00	-19.00	18.00	24.00
9.00	84.00	81.00	-15.00	-23.00	22.00	10.00
7.00	46.00	109.00	7.00	-8.00	7.00	-4.00
2.00	10.00	102.00	11.00	21.00	-2.00	-4.00
-1.00	-45.00	80.00	29.00	38.00	2.00	-5.00
-2.00	-47.00	65.00	47.00	50.00	6.00	-10.00
5.00	-37.00	40.00	51.00	66.00	8.00	-13.00
2.00	22.00	4.00	46.00	60.00	8.00	-19.00
8.00	107.00	-10.00	59.00	54.00	12.00	-1.00
6.00	170.00	-14.00	59.00	43.00	2.00	8.00
4.00	153.00	-17.00	47.00	34.00	-4.00	-9.00
6.00	111.00	-27.00	35.00	18.00	-1.00	-23.00
6.00	90.00	-22.00	32.00	3.00	5.00	-18.00
4.00	62.00	-6.00	27.00	-3.00	5.00	-8.00
1.00	25.00	47.00	38.00	4.00	8.00	-11.00
-2.00	-14.00	80.00	51.00	6.00	3.00	0.00
-7.00	-82.00	75.00	56.00	1.00	2.00	13.00
-4.00	-146.00	47.00	58.00	0.00	8.00	9.00
-9.00	-164.00	27.00	57.00	-15.00	7.00	8.00
-15.00	-154.00	23.00	59.00	-22.00	11.00	10.00
-13.00	-105.00	18.00	64.00	-18.00	2.00	9.00
-14.00	-10.00	39.00	60.00	-9.00	5.00	18.00
-12.00	114.00	44.00	51.00	-2.00	6.00	20.00
-13.00	207.00	22.00	67.00	0.00	3.00	10.00
-15.00	221.00	-4.00	86.00	7.00	3.00	4.00
-11.00	150.00	-19.00	95.00	21.00	8.00	4.00
-14.00	70.00	-23.00	121.00	17.00	6.00	-5.00
-9.00	5.00	-23.00	137.00	18.00	9.00	-6.00
-3.00	-79.00	1.00	124.00	16.00	7.00	-4.00
4.00	-92.00	-5.00	84.00	10.00	8.00	1.00
7.00	-59.00	-15.00	35.00	10.00	10.00	-1.00
15.00	-15.00	-9.00	-22.00	30.00	9.00	2.00
10.00	29.00	-8.00	-66.00	31.00	7.00	7.00
1.00	52.00	-4.00	-72.00	24.00	5.00	7.00
1.00	40.00	3.00	-81.00	8.00	7.00	-1.00
-1.00	8.00	-8.00	-105.00	-15.00	12.00	-9.00
-2.00	-3.00	-7.00	-95.00	-32.00	13.00	-1.00
-12.00	2.00	22.00	-80.00	-35.00	10.00	-5.00
-14.00	4.00	61.00	-69.00	-28.00	7.00	1.00
-17.00	10.00	68.00	-56.00	-11.00	10.00	12.00
-15.00	8.00	63.00	-40.00	15.00	16.00	12.00
-4.00	3.00	33.00	-29.00	25.00	17.00	8.00
0.00	-23.00	-14.00	-47.00	27.00	2.00	2.00
0.00	-54.00	-16.00	-96.00	26.00	0.00	2.00
2.00	-87.00	-28.00	-91.00	37.00	4.00	-2.00
2.00	-100.00	-39.00	6.00	25.00	10.00	-7.00
9.00	-99.00	-37.00	33.00	16.00	11.00	-9.00
8.00	-90.00	-17.00	9.00	17.00	6.00	0.00
6.00	-85.00	-2.00	-4.00	6.00	7.00	3.00
5.00	-57.00	5.00	52.00	2.00	6.00	4.00
8.00	5.00	-1.00	121.00	0.00	5.00	-1.00
7.00	45.00	-25.00	116.00	0.00	7.00	1.00
6.00	95.00	-49.00	72.00	2.00	9.00	3.00
3.00	110.00	-62.00	23.00	0.00	5.00	0.00
3.00	103.00	-65.00	-14.00	11.00	12.00	2.00
2.00	83.00	-45.00	-55.00	26.00	18.00	2.00
-1.00	49.00	-17.00	-108.00	32.00	19.00	2.00
0.00	24.00	1.00	-155.00	27.00	18.00	2.00
0.00	23.00	-2.00	-169.00	24.00	19.00	2.00
-5.00	73.00	-24.00	-142.00	14.00	16.00	-2.00
-6.00	92.00	-30.00	-80.00	7.00	12.00	5.00
-3.00	87.00	-25.00	-9.00	3.00	12.00	9.00
4.00	66.00	-4.00	25.00	3.00	14.00	12.00
-5.00	26.00	16.00	29.00	9.00	13.00	11.00
-9.00	5.00	22.00	43.00	3.00	9.00	0.00
-6.00	-1.00	25.00	48.00	0.00	6.00	-8.00
1.00	5.00	37.00	54.00	-5.00	3.00	-4.00
5.00	3.00	46.00	47.00	0.00	2.00	-1.00
6.00	-5.00	47.00	45.00	-2.00	10.00	7.00
-5.00	-15.00	29.00	35.00	1.00	7.00	-3.00
-2.00	-35.00	13.00	28.00	27.00	3.00	-6.00
2.00	-73.00	18.00	40.00	37.00	5.00	-7.00
2.00	-83.00	52.00	67.00	33.00	12.00	-15.00
0.00	-52.00	50.00	70.00	28.00	16.00	-25.00
-4.00	-4.00	61.00	57.00	48.00	7.00	-15.00
-7.00	47.00	74.00	44.00	48.00	-8.00	-2.00
-5.00	74.00	45.00	34.00	50.00	-5.00	12.00
-5.00	94.00	11.00	33.00	46.00	8.00	4.00
1.00	107.00	-29.00	36.00	30.00	7.00	8.00
8.00	69.00	-70.00	43.00	12.00	5.00	0.00
5.00	41.00	-110.00	62.00	-13.00	3.00	-16.00
1.00	33.00	-143.00	63.00	-44.00	4.00	-25.00
3.00	46.00	-145.00	34.00	-71.00	8.00	-30.00
1.00	54.00	-98.00	2.00	-79.00	11.00	-36.00
1.00	3.00	-31.00	-30.00	-81.00	10.00	-33.00
0.00	-63.00	14.00	-42.00	-73.00	7.00	-40.00
-5.00	-74.00	48.00	-45.00	-47.00	6.00	-30.00
-5.00	-62.00	57.00	-54.00	-32.00	4.00	-3.00
-14.00	-8.00	46.00	-56.00	-22.00	5.00	-6.00
-7.00	21.00	26.00	-29.00	-8.00	9.00	-10.00
1.00	18.00	23.00	20.00	27.00	8.00	8.00
6.00	3.00	21.00	68.00	41.00	2.00	34.00
6.00	-25.00	-2.00	80.00	51.00	1.00	60.00
0.00	-35.00	4.00	74.00	49.00	7.00	62.00
0.00	-18.00	17.00	47.00	48.00	13.00	53.00
-2.00	19.00	19.00	19.00	59.00	13.00	55.00
1.00	38.00	18.00	7.00	51.00	16.00	46.00
-2.00	60.00	14.00	-2.00	34.00	39.00	30.00
-3.00	61.00	3.00	-16.00	18.00	47.00	25.00
-1.00	69.00	7.00	1.00	25.00	-1.00	27.00
9.00	110.00	18.00	32.00	7.00	-19.00	18.00
7.00	152.00	25.00	55.00	-14.00	-5.00	10.00
1.00	135.00	43.00	58.00	-29.00	6.00	-3.00
1.00	85.00	42.00	19.00	-31.00	11.00	-3.00
-6.00	41.00	63.00	10.00	-32.00	10.00	-2.00
-15.00	17.00	76.00	25.00	-27.00	11.00	-6.00
-13.00	-21.00	71.00	22.00	-16.00	12.00	-24.00
-11.00	-47.00	64.00	-3.00	0.00	0.00	-25.00
-16.00	-42.00	31.00	-30.00	10.00	1.00	-20.00
-19.00	-44.00	2.00	-53.00	11.00	3.00	-20.00
-21.00	-63.00	-18.00	-68.00	12.00	6.00	-18.00
-17.00	-51.00	-42.00	-63.00	17.00	11.00	-12.00
-13.00	-29.00	-86.00	-54.00	25.00	14.00	-5.00
-2.00	-16.00	-120.00	-53.00	23.00	13.00	8.00
0.00	-21.00	-138.00	-49.00	16.00	10.00	7.00
7.00	-20.00	-146.00	-43.00	27.00	8.00	3.00
13.00	-6.00	-129.00	-36.00	63.00	6.00	7.00
21.00	23.00	-100.00	-24.00	87.00	1.00	10.00
30.00	27.00	-51.00	-15.00	103.00	3.00	20.00
30.00	19.00	-2.00	12.00	125.00	6.00	15.00
42.00	-9.00	26.00	53.00	184.00	3.00	2.00
60.00	0.00	36.00	81.00	172.00	5.00	1.00
57.00	14.00	62.00	88.00	136.00	5.00	3.00
67.00	2.00	88.00	98.00	99.00	7.00	4.00
71.00	-47.00	87.00	75.00	78.00	11.00	6.00
59.00	-101.00	59.00	57.00	58.00	11.00	8.00
46.00	-107.00	43.00	52.00	21.00	10.00	11.00
27.00	-78.00	45.00	36.00	0.00	11.00	10.00
21.00	-47.00	60.00	27.00	-6.00	7.00	9.00
13.00	-5.00	68.00	9.00	9.00	6.00	4.00
12.00	43.00	86.00	-18.00	30.00	7.00	-4.00
8.00	91.00	69.00	-52.00	134.00	6.00	-18.00
0.00	113.00	49.00	-64.00	162.00	5.00	-25.00
-9.00	57.00	43.00	-61.00	115.00	3.00	-19.00
-16.00	33.00	32.00	-61.00	48.00	9.00	-10.00
-24.00	48.00	5.00	-60.00	-3.00	13.00	-12.00
-29.00	64.00	-20.00	-46.00	-74.00	14.00	-18.00
-40.00	78.00	-52.00	-49.00	-129.00	14.00	-29.00
-38.00	63.00	-76.00	-14.00	-147.00	13.00	-33.00
-39.00	56.00	-77.00	40.00	-167.00	15.00	-34.00
-47.00	61.00	-66.00	56.00	-176.00	16.00	-29.00
-48.00	32.00	-58.00	55.00	-183.00	18.00	-22.00
-50.00	8.00	-36.00	63.00	-164.00	13.00	-28.00
-52.00	4.00	-19.00	60.00	-149.00	14.00	-25.00
-55.00	-26.00	-34.00	30.00	-144.00	15.00	-28.00
-59.00	-71.00	-73.00	5.00	-130.00	13.00	-24.00
-55.00	-90.00	-91.00	-26.00	-90.00	11.00	-14.00
-52.00	-65.00	-81.00	-65.00	-58.00	6.00	-14.00
-54.00	0.00	-65.00	-89.00	-46.00	5.00	-12.00
-43.00	45.00	-34.00	-79.00	-27.00	2.00	-9.00
-42.00	77.00	24.00	-60.00	5.00	3.00	-4.00
-39.00	68.00	44.00	-43.00	30.00	4.00	-3.00
-39.00	62.00	43.00	-26.00	44.00	5.00	0.00
-36.00	61.00	40.00	-18.00	49.00	7.00	5.00
-30.00	54.00	39.00	4.00	49.00	7.00	5.00
-26.00	17.00	20.00	13.00	49.00	6.00	6.00
-30.00	25.00	6.00	32.00	69.00	5.00	5.00
-21.00	42.00	11.00	50.00	95.00	3.00	7.00
-15.00	53.00	16.00	81.00	93.00	6.00	10.00
-15.00	48.00	26.00	73.00	85.00	5.00	8.00
-16.00	46.00	40.00	59.00	81.00	5.00	8.00
-12.00	29.00	44.00	40.00	89.00	12.00	11.00
-8.00	-7.00	46.00	20.00	97.00	4.00	15.00
-2.00	-45.00	44.00	17.00	99.00	-6.00	18.00
0.00	-54.00	36.00	7.00	83.00	0.00	22.00
0.00	-46.00	15.00	1.00	75.00	3.00	21.00
2.00	-22.00	11.00	11.00	90.00	2.00	11.00
4.00	5.00	11.00	15.00	120.00	4.00	19.00
8.00	33.00	28.00	14.00	163.00	7.00	24.00
9.00	43.00	60.00	14.00	189.00	4.00	20.00
11.00	52.00	76.00	42.00	175.00	7.00	21.00
13.00	42.00	103.00	75.00	146.00	8.00	22.00
16.00	10.00	124.00	68.00	98.00	6.00	19.00
20.00	-13.00	115.00	58.00	50.00	4.00	21.00
22.00	-21.00	85.00	46.00	15.00	4.00	22.00
30.00	-14.00	43.00	43.00	-14.00	5.00	16.00
30.00	-12.00	2.00	44.00	-36.00	6.00	20.00
34.00	-18.00	-38.00	36.00	-40.00	6.00	13.00
40.00	-33.00	-79.00	16.00	-56.00	10.00	13.00
37.00	-73.00	-120.00	5.00	-62.00	10.00	13.00
30.00	-106.00	-139.00	-10.00	-71.00	5.00	11.00
24.00	-91.00	-143.00	-10.00	-88.00	8.00	10.00
20.00	-56.00	-118.00	15.00	-87.00	15.00	10.00
13.00	-24.00	-92.00	-9.00	-86.00	16.00	6.00
12.00	2.00	-67.00	-52.00	-89.00	10.00	4.00
13.00	38.00	-50.00	-59.00	-89.00	10.00	2.00
12.00	79.00	-41.00	-69.00	-66.00	12.00	2.00
21.00	114.00	-32.00	-83.00	-49.00	13.00	2.00
21.00	135.00	-20.00	-69.00	-57.00	12.00	0.00
25.00	135.00	-7.00	-41.00	-74.00	14.00	-8.00
27.00	133.00	-3.00	-44.00	-72.00	14.00	-3.00
24.00	117.00	-13.00	-63.00	-62.00	11.00	2.00
25.00	75.00	-8.00	-52.00	-34.00	12.00	-4.00
23.00	40.00	3.00	-23.00	-13.00	11.00	-8.00
18.00	13.00	3.00	-3.00	22.00	10.00	-10.00
20.00	2.00	-2.00	7.00	18.00	10.00	-8.00
19.00	10.00	-12.00	10.00	5.00	9.00	-10.00
17.00	8.00	-11.00	16.00	-6.00	5.00	-16.00
14.00	9.00	0.00	17.00	-13.00	7.00	-16.00
8.00	7.00	19.00	19.00	-18.00	11.00	-10.00
5.00	3.00	41.00	13.00	-40.00	12.00	-7.00
2.00	2.00	50.00	11.00	-68.00	10.00	-4.00
-1.00	-2.00	50.00	15.00	-76.00	10.00	-4.00
-1.00	-6.00	54.00	15.00	-31.00	15.00	-3.00
-5.00	-14.00	59.00	26.00	-3.00	12.00	-5.00
-9.00	-31.00	52.00	34.00	0.00	3.00	-4.00
-12.00	-42.00	42.00	45.00	-2.00	0.00	4.00
-18.00	-42.00	43.00	52.00	-9.00	6.00	-1.00
-21.00	-32.00	29.00	42.00	-16.00	2.00	-2.00
-12.00	-25.00	0.00	38.00	-23.00	2.00	-4.00
-12.00	-14.00	-9.00	39.00	-44.00	-2.00	5.00
-10.00	18.00	-5.00	39.00	-54.00	-3.00	2.00
-9.00	47.00	4.00	40.00	-48.00	2.00	-4.00
-3.00	16.00	5.00	35.00	-40.00	6.00	-6.00
-2.00	-27.00	10.00	37.00	-20.00	8.00	-7.00
-1.00	-42.00	15.00	34.00	-4.00	6.00	-11.00
2.00	-50.00	17.00	27.00	9.00	5.00	-12.00
-3.00	-42.00	14.00	18.00	11.00	4.00	-13.00
-3.00	-13.00	6.00	19.00	23.00	7.00	-13.00
-6.00	26.00	10.00	22.00	39.00	8.00	-18.00
-5.00	63.00	16.00	26.00	60.00	6.00	-11.00
1.00	82.00	10.00	26.00	75.00	5.00	-7.00
7.00	78.00	-1.00	25.00	84.00	4.00	-8.00
10.00	53.00	10.00	23.00	91.00	7.00	-7.00
7.00	17.00	34.00	17.00	101.00	8.00	0.00
6.00	15.00	19.00	6.00	115.00	13.00	4.00
1.00	25.00	-8.00	0.00	121.00	14.00	8.00
2.00	45.00	-23.00	-8.00	123.00	11.00	13.00
-4.00	68.00	-38.00	-14.00	132.00	7.00	11.00
-5.00	91.00	-52.00	-8.00	147.00	7.00	7.00
-6.00	94.00	-69.00	-11.00	147.00	9.00	0.00
-5.00	61.00	-70.00	-12.00	161.00	13.00	0.00
-4.00	11.00	-53.00	-19.00	151.00	13.00	6.00
-5.00	-46.00	-43.00	-19.00	94.00	11.00	6.00
-6.00	-56.00	-30.00	-15.00	65.00	10.00	4.00
-2.00	-46.00	-20.00	-10.00	53.00	12.00	5.00
-1.00	-16.00	-11.00	-10.00	7.00	9.00	5.00
1.00	21.00	-7.00	-12.00	-32.00	9.00	7.00
-1.00	43.00	-11.00	-13.00	-71.00	8.00	10.00
-3.00	49.00	-12.00	-17.00	-43.00	7.00	12.00
-10.00	43.00	-15.00	-21.00	-45.00	8.00	14.00
-7.00	26.00	-12.00	-16.00	-84.00	9.00	17.00
-5.00	32.00	-1.00	-12.00	-90.00	8.00	7.00
-6.00	30.00	14.00	-10.00	-101.00	6.00	-6.00
-5.00	16.00	23.00	-6.00	-124.00	6.00	-5.00
-12.00	0.00	29.00	4.00	-154.00	9.00	-5.00
-18.00	-17.00	36.00	15.00	-156.00	7.00	-4.00
-26.00	-25.00	36.00	23.00	-139.00	3.00	-4.00
-23.00	-30.00	34.00	24.00	-118.00	4.00	-1.00
-17.00	-23.00	29.00	29.00	-79.00	5.00	0.00
-11.00	-15.00	21.00	27.00	-34.00	6.00	5.00
-3.00	-15.00	16.00	24.00	-32.00	6.00	12.00
0.00	-17.00	10.00	22.00	-8.00	5.00	17.00
3.00	-33.00	5.00	16.00	59.00	3.00	13.00
7.00	-54.00	12.00	11.00	73.00	2.00	8.00
5.00	-57.00	11.00	2.00	64.00	0.00	1.00
11.00	-40.00	14.00	1.00	39.00	6.00	-3.00
12.00	-28.00	14.00	3.00	62.00	5.00	-3.00
8.00	0.00	11.00	0.00	107.00	6.00	3.00
8.00	42.00	7.00	-3.00	85.00	8.00	0.00
6.00	71.00	4.00	-7.00	38.00	10.00	-10.00
5.00	85.00	0.00	-7.00	-2.00	11.00	-18.00
3.00	82.00	6.00	1.00	-32.00	9.00	-30.00
6.00	72.00	13.00	11.00	-41.00	12.00	-31.00
0.00	69.00	14.00	20.00	-32.00	12.00	-32.00
-2.00	56.00	4.00	26.00	-15.00	11.00	-34.00
0.00	48.00	7.00	25.00	20.00	12.00	-28.00
7.00	35.00	44.00	21.00	79.00	9.00	-9.00
7.00	25.00	64.00	21.00	122.00	8.00	2.00
8.00	20.00	67.00	15.00	167.00	12.00	42.00
-2.00	18.00	58.00	13.00	147.00	11.00	42.00
0.00	12.00	29.00	2.00	102.00	10.00	19.00
-5.00	9.00	7.00	-15.00	61.00	6.00	3.00
-7.00	11.00	-16.00	-28.00	25.00	8.00	-2.00
-4.00	12.00	-44.00	-38.00	-8.00	6.00	-2.00
-6.00	14.00	-65.00	-28.00	-26.00	7.00	-3.00
-2.00	9.00	-81.00	-10.00	-31.00	9.00	-10.00
-5.00	4.00	-95.00	22.00	-11.00	11.00	-19.00
-6.00	-11.00	-97.00	36.00	20.00	12.00	-34.00
-6.00	-21.00	-80.00	30.00	46.00	9.00	-42.00
-3.00	-11.00	-60.00	6.00	66.00	10.00	-49.00
-1.00	-7.00	-38.00	-12.00	75.00	11.00	-40.00
0.00	0.00	-15.00	-27.00	78.00	8.00	-28.00
-5.00	14.00	9.00	-30.00	67.00	5.00	-8.00
-1.00	28.00	36.00	-19.00	38.00	10.00	0.00
-4.00	34.00	48.00	1.00	13.00	10.00	8.00
-10.00	30.00	48.00	12.00	6.00	6.00	27.00
-8.00	18.00	50.00	19.00	28.00	-1.00	40.00
-8.00	10.00	41.00	31.00	30.00	2.00	22.00
-3.00	3.00	31.00	51.00	25.00	5.00	17.00
-5.00	-1.00	26.00	81.00	21.00	5.00	26.00
-7.00	-2.00	19.00	118.00	18.00	5.00	28.00
-7.00	-4.00	9.00	111.00	10.00	4.00	30.00
2.00	-7.00	7.00	70.00	0.00	5.00	44.00
-1.00	-15.00	10.00	35.00	-15.00	6.00	42.00
0.00	-12.00	14.00	8.00	-37.00	6.00	15.00
3.00	-4.00	13.00	-9.00	-27.00	3.00	0.00
6.00	-2.00	12.00	-13.00	-11.00	5.00	-20.00
2.00	7.00	12.00	-20.00	0.00	3.00	-31.00
5.00	12.00	5.00	-11.00	-3.00	6.00	-43.00
1.00	22.00	-2.00	-17.00	1.00	7.00	-57.00
-4.00	24.00	-6.00	-15.00	18.00	12.00	-43.00
-10.00	24.00	-7.00	-4.00	22.00	16.00	-2.00
-2.00	5.00	-6.00	13.00	28.00	11.00	26.00
-3.00	-2.00	-14.00	-13.00	30.00	11.00	29.00
-1.00	-3.00	-19.00	-39.00	25.00	12.00	37.00
2.00	7.00	-26.00	-63.00	19.00	12.00	38.00
7.00	37.00	-35.00	-86.00	12.00	18.00	18.00
2.00	59.00	-48.00	-82.00	1.00	17.00	24.00
6.00	63.00	-45.00	-66.00	-23.00	15.00	22.00
5.00	61.00	-41.00	-45.00	-40.00	13.00	1.00
4.00	46.00	-33.00	-29.00	-46.00	9.00	-14.00
6.00	21.00	-25.00	-6.00	-43.00	8.00	-15.00
8.00	8.00	-17.00	6.00	-36.00	8.00	-14.00
5.00	4.00	-9.00	13.00	-40.00	4.00	-9.00
2.00	3.00	5.00	19.00	-38.00	0.00	-3.00
1.00	9.00	14.00	28.00	-27.00	3.00	1.00
-1.00	6.00	20.00	47.00	-20.00	6.00	1.00
1.00	8.00	26.00	57.00	-9.00	4.00	12.00
1.00	10.00	29.00	47.00	2.00	5.00	22.00
1.00	9.00	28.00	25.00	15.00	7.00	16.00
-3.00	-6.00	24.00	3.00	24.00	8.00	12.00
-6.00	-1.00	13.00	-26.00	32.00	10.00	12.00
-4.00	0.00	-1.00	-32.00	33.00	8.00	4.00
-3.00	-4.00	-3.00	0.00	37.00	9.00	-7.00
-10.00	-14.00	-1.00	35.00	50.00	8.00	-22.00
2.00	-14.00	1.00	63.00	62.00	7.00	-23.00
2.00	-8.00	6.00	93.00	80.00	6.00	-20.00
1.00	-4.00	14.00	108.00	71.00	6.00	-20.00
-1.00	-3.00	34.00	98.00	59.00	6.00	-19.00
-3.00	1.00	32.00	72.00	54.00	9.00	-19.00
-1.00	17.00	19.00	40.00	62.00	6.00	-16.00
2.00	38.00	8.00	15.00	44.00	7.00	-12.00
6.00	40.00	1.00	-26.00	19.00	9.00	-14.00
2.00	30.00	-9.00	-53.00	-4.00	8.00	-21.00
-1.00	21.00	-19.00	-76.00	-30.00	11.00	-20.00
4.00	21.00	-23.00	-77.00	-43.00	10.00	-24.00
4.00	25.00	-27.00	-66.00	-21.00	11.00	-18.00
3.00	25.00	-27.00	-63.00	21.00	12.00	-8.00
-1.00	28.00	-34.00	-57.00	24.00	13.00	-8.00
-2.00	24.00	-27.00	-45.00	11.00	14.00	-6.00
-1.00	14.00	-3.00	-32.00	4.00	12.00	-7.00
-12.00	6.00	23.00	-13.00	-6.00	12.00	-9.00
0.00	2.00	27.00	-9.00	-22.00	8.00	-3.00
-4.00	1.00	22.00	-10.00	-32.00	6.00	6.00
-9.00	2.00	20.00	1.00	-41.00	3.00	10.00
-8.00	3.00	14.00	27.00	-41.00	3.00	12.00
-2.00	-7.00	7.00	58.00	-34.00	4.00	14.00
-1.00	-44.00	1.00	65.00	-26.00	4.00	5.00
3.00	-59.00	1.00	64.00	-19.00	5.00	3.00
6.00	-49.00	3.00	58.00	-3.00	5.00	1.00
3.00	-24.00	-1.00	39.00	18.00	8.00	7.00
0.00	-3.00	-5.00	22.00	42.00	10.00	9.00
-1.00	3.00	-6.00	16.00	37.00	14.00	7.00
-6.00	10.00	0.00	9.00	36.00	15.00	4.00
-12.00	36.00	2.00	-2.00	48.00	12.00	1.00
-4.00	45.00	6.00	3.00	78.00	10.00	-1.00
-3.00	62.00	8.00	10.00	70.00	8.00	-6.00
5.00	77.00	1.00	20.00	64.00	6.00	-4.00
5.00	102.00	-2.00	30.00	84.00	6.00	-3.00
0.00	106.00	-3.00	38.00	68.00	5.00	-4.00
-3.00	92.00	-3.00	40.00	33.00	6.00	0.00
-10.00	63.00	1.00	39.00	-11.00	7.00	1.00
2.00	22.00	5.00	28.00	-50.00	6.00	3.00
6.00	-23.00	9.00	20.00	-81.00	9.00	3.00
7.00	-39.00	13.00	14.00	-98.00	6.00	2.00
6.00	-38.00	18.00	14.00	-104.00	4.00	8.00
4.00	-28.00	17.00	12.00	-97.00	5.00	11.00
5.00	-11.00	20.00	12.00	-85.00	6.00	6.00
3.00	8.00	17.00	3.00	-56.00	9.00	4.00
3.00	45.00	7.00	-3.00	71.00	9.00	13.00
2.00	79.00	-2.00	0.00	129.00	7.00	8.00
7.00	66.00	0.00	7.00	115.00	9.00	4.00
5.00	42.00	4.00	10.00	70.00	8.00	3.00
4.00	25.00	3.00	1.00	35.00	4.00	4.00
5.00	12.00	-3.00	-11.00	10.00	5.00	6.00
10.00	-5.00	-10.00	-10.00	-15.00	8.00	3.00
3.00	-24.00	-19.00	-11.00	-36.00	9.00	2.00
3.00	-53.00	-35.00	-11.00	-48.00	10.00	2.00
-4.00	-48.00	-38.00	-10.00	-35.00	13.00	1.00
-6.00	-24.00	-35.00	-10.00	-12.00	12.00	-1.00
-10.00	8.00	-28.00	-15.00	56.00	9.00	1.00
-15.00	27.00	-16.00	-22.00	89.00	5.00	-1.00
-17.00	34.00	-5.00	-30.00	92.00	3.00	-3.00
-19.00	52.00	8.00	-33.00	68.00	4.00	-2.00
-17.00	65.00	11.00	-27.00	28.00	5.00	-8.00
-17.00	64.00	15.00	-10.00	0.00	7.00	-10.00
-16.00	47.00	13.00	6.00	-30.00	8.00	-9.00
-17.00	29.00	9.00	11.00	-52.00	5.00	-7.00
-13.00	16.00	12.00	14.00	-58.00	4.00	-8.00
-7.00	14.00	12.00	19.00	-44.00	10.00	-12.00
-10.00	11.00	11.00	23.00	-9.00	13.00	-5.00
-3.00	10.00	14.00	27.00	15.00	10.00	-2.00
2.00	2.00	12.00	27.00	33.00	6.00	-2.00
8.00	-8.00	10.00	23.00	77.00	9.00	-3.00
11.00	-13.00	4.00	16.00	125.00	9.00	-4.00
5.00	-13.00	-12.00	8.00	145.00	10.00	-6.00
7.00	-1.00	-13.00	13.00	166.00	7.00	-16.00
6.00	12.00	-15.00	15.00	128.00	4.00	-20.00
1.00	15.00	-13.00	17.00	77.00	6.00	-15.00
-7.00	22.00	-12.00	17.00	17.00	9.00	-7.00
-14.00	32.00	-6.00	17.00	-39.00	12.00	-3.00
-14.00	20.00	1.00	9.00	-82.00	13.00	-1.00
-15.00	-11.00	13.00	4.00	-107.00	10.00	1.00
-12.00	-23.00	23.00	1.00	-115.00	10.00	4.00
-8.00	-21.00	23.00	3.00	-123.00	9.00	8.00
-5.00	-31.00	25.00	-2.00	-117.00	7.00	12.00
4.00	-37.00	25.00	-5.00	-101.00	6.00	15.00
8.00	-49.00	22.00	2.00	-91.00	9.00	20.00
12.00	-46.00	17.00	9.00	-84.00	11.00	18.00
9.00	-30.00	13.00	13.00	-71.00	5.00	1.00
4.00	4.00	11.00	17.00	-43.00	3.00	0.00
0.00	25.00	5.00	17.00	-25.00	0.00	-3.00
2.00	42.00	0.00	18.00	-11.00	7.00	-4.00
0.00	45.00	-4.00	17.00	5.00	9.00	-5.00
1.00	48.00	-10.00	16.00	42.00	3.00	-5.00
3.00	59.00	-11.00	13.00	80.00	0.00	-4.00
10.00	52.00	-9.00	8.00	114.00	3.00	-3.00
8.00	36.00	-11.00	3.00	111.00	2.00	-1.00
8.00	38.00	-7.00	3.00	90.00	3.00	4.00
8.00	43.00	-3.00	2.00	56.00	3.00	5.00
5.00	38.00	-1.00	-2.00	27.00	6.00	10.00
3.00	22.00	2.00	1.00	1.00	8.00	4.00
3.00	19.00	3.00	1.00	-10.00	9.00	1.00
2.00	24.00	6.00	3.00	-16.00	9.00	0.00
5.00	41.00	7.00	7.00	-11.00	8.00	-2.00
4.00	46.00	8.00	8.00	5.00	9.00	-2.00
5.00	27.00	8.00	6.00	22.00	12.00	-2.00
1.00	3.00	7.00	7.00	39.00	12.00	-5.00
1.00	-2.00	7.00	10.00	43.00	12.00	-2.00
1.00	-5.00	6.00	8.00	42.00	10.00	-6.00
1.00	-8.00	5.00	8.00	39.00	8.00	-5.00
3.00	-25.00	3.00	10.00	43.00	12.00	-4.00
-1.00	-33.00	-1.00	8.00	45.00	12.00	-5.00
-4.00	-20.00	0.00	8.00	48.00	12.00	-6.00
-1.00	-8.00	0.00	6.00	66.00	10.00	-7.00
0.00	-1.00	0.00	7.00	70.00	11.00	-2.00
1.00	8.00	0.00	6.00	67.00	11.00	-1.00
-1.00	14.00	-3.00	5.00	60.00	10.00	2.00
1.00	19.00	-6.00	4.00	72.00	7.00	0.00
5.00	25.00	-8.00	4.00	58.00	8.00	4.00
5.00	18.00	-10.00	5.00	39.00	9.00	-4.00
3.00	12.00	-13.00	4.00	19.00	8.00	-3.00
4.00	11.00	-13.00	8.00	5.00	7.00	2.00
3.00	10.00	-14.00	7.00	-5.00	6.00	1.00
0.00	14.00	-12.00	10.00	-11.00	5.00	2.00
-4.00	17.00	-14.00	8.00	-18.00	5.00	0.00
-13.00	10.00	-14.00	9.00	-22.00	5.00	-4.00
-8.00	7.00	-11.00	11.00	-22.00	5.00	-4.00
-11.00	5.00	-8.00	9.00	-18.00	4.00	-4.00
-10.00	6.00	-7.00	7.00	-17.00	4.00	-3.00
0.00	6.00	-7.00	7.00	-5.00	5.00	-5.00
1.00	9.00	-5.00	9.00	6.00	4.00	-11.00
3.00	12.00	3.00	11.00	8.00	8.00	-4.00
5.00	7.00	6.00	8.00	3.00	5.00	2.00
4.00	3.00	-2.00	9.00	-5.00	6.00	0.00
6.00	3.00	-5.00	8.00	-4.00	8.00	-1.00
-2.00	0.00	-7.00	7.00	-3.00	8.00	-8.00
-9.00	0.00	-1.00	8.00	21.00	6.00	-2.00
-4.00	6.00	6.00	11.00	44.00	6.00	-5.00
-7.00	12.00	10.00	9.00	41.00	5.00	-2.00
-12.00	16.00	10.00	3.00	30.00	5.00	1.00
-12.00	20.00	16.00	3.00	11.00	5.00	2.00
-13.00	20.00	22.00	8.00	-10.00	6.00	-1.00
-11.00	17.00	21.00	9.00	-20.00	5.00	-1.00
-2.00	12.00	15.00	7.00	7.00	6.00	4.00
-6.00	11.00	8.00	4.00	17.00	4.00	0.00
-4.00	13.00	7.00	0.00	5.00	5.00	4.00
0.00	18.00	6.00	1.00	3.00	9.00	-1.00
-3.00	18.00	-5.00	-9.00	-5.00	12.00	-2.00
0.00	16.00	-14.00	-17.00	-10.00	11.00	-7.00
4.00	13.00	-22.00	-19.00	-12.00	10.00	-5.00
8.00	-3.00	-19.00	-16.00	-12.00	13.00	-4.00
11.00	-7.00	-12.00	-4.00	5.00	16.00	6.00
17.00	-6.00	-8.00	5.00	13.00	16.00	7.00
14.00	4.00	-4.00	17.00	8.00	15.00	2.00
11.00	15.00	3.00	26.00	0.00	13.00	3.00
7.00	14.00	1.00	30.00	-9.00	13.00	8.00
6.00	14.00	-5.00	23.00	-17.00	11.00	13.00
3.00	22.00	-3.00	17.00	-22.00	10.00	9.00
2.00	28.00	-4.00	16.00	-23.00	8.00	-4.00
-1.00	28.00	5.00	13.00	-25.00	7.00	-7.00
-11.00	32.00	11.00	9.00	-10.00	7.00	-5.00
-18.00	37.00	12.00	3.00	35.00	7.00	-5.00
-21.00	40.00	14.00	0.00	51.00	6.00	-2.00
-20.00	44.00	11.00	-6.00	49.00	4.00	0.00
-24.00	46.00	11.00	-7.00	38.00	2.00	1.00
-25.00	35.00	9.00	3.00	27.00	5.00	3.00
-7.00	23.00	10.00	9.00	9.00	7.00	3.00
-7.00	17.00	1.00	7.00	-3.00	7.00	-1.00
-7.00	16.00	-10.00	-3.00	-6.00	9.00	-1.00
-1.00	15.00	-15.00	2.00	-8.00	11.00	2.00
1.00	12.00	-9.00	10.00	-9.00	10.00	3.00
-1.00	14.00	-2.00	19.00	-9.00	7.00	1.00
-1.00	9.00	0.00	19.00	-4.00	4.00	-4.00
9.00	-1.00	1.00	11.00	7.00	4.00	-9.00
9.00	-6.00	1.00	-3.00	21.00	8.00	-7.00
11.00	-5.00	4.00	5.00	42.00	9.00	-6.00
8.00	2.00	2.00	4.00	48.00	9.00	-4.00
5.00	8.00	3.00	1.00	48.00	8.00	-6.00
10.00	11.00	5.00	-5.00	46.00	7.00	-12.00
2.00	6.00	9.00	-3.00	39.00	7.00	-13.00
-2.00	0.00	9.00	12.00	48.00	10.00	-2.00
-1.00	-5.00	7.00	26.00	53.00	8.00	0.00
1.00	-4.00	8.00	25.00	40.00	8.00	0.00
3.00	0.00	8.00	25.00	29.00	8.00	3.00
2.00	9.00	8.00	18.00	16.00	8.00	5.00
0.00	18.00	2.00	9.00	0.00	6.00	1.00
4.00	33.00	3.00	-2.00	-13.00	7.00	-5.00
3.00	40.00	0.00	-14.00	-18.00	7.00	-3.00
5.00	61.00	-2.00	-17.00	-21.00	9.00	-3.00
10.00	71.00	-2.00	-14.00	-17.00	11.00	-5.00
6.00	46.00	1.00	-7.00	-11.00	12.00	-6.00
5.00	15.00	5.00	-2.00	-3.00	12.00	-1.00
4.00	2.00	9.00	-4.00	9.00	12.00	-2.00
5.00	-32.00	7.00	-9.00	22.00	11.00	-5.00
2.00	-60.00	5.00	-10.00	22.00	8.00	-2.00
5.00	-54.00	6.00	-5.00	16.00	10.00	0.00
2.00	-29.00	8.00	5.00	15.00	9.00	4.00
-1.00	2.00	12.00	10.00	17.00	11.00	4.00
-3.00	10.00	13.00	12.00	15.00	12.00	2.00
-11.00	0.00	12.00	14.00	8.00	8.00	5.00
-14.00	13.00	10.00	22.00	7.00	8.00	8.00
-17.00	40.00	9.00	30.00	18.00	7.00	-2.00
-23.00	48.00	4.00	26.00	18.00	8.00	-2.00
-20.00	40.00	0.00	18.00	17.00	9.00	2.00
-16.00	45.00	-4.00	13.00	11.00	8.00	2.00
-13.00	61.00	-7.00	13.00	6.00	7.00	-2.00
-11.00	78.00	-11.00	8.00	5.00	8.00	1.00
-1.00	67.00	-18.00	3.00	5.00	8.00	-1.00
3.00	43.00	-20.00	1.00	4.00	6.00	-1.00
7.00	26.00	-23.00	0.00	9.00	6.00	-1.00
14.00	15.00	-21.00	2.00	7.00	6.00	-4.00
12.00	-8.00	-16.00	6.00	8.00	7.00	-1.00
12.00	-29.00	-13.00	16.00	8.00	7.00	0.00
13.00	-25.00	-6.00	25.00	8.00	7.00	-2.00
10.00	-9.00	-1.00	25.00	0.00	7.00	-1.00
10.00	8.00	8.00	27.00	0.00	4.00	-1.00
6.00	9.00	9.00	20.00	5.00	2.00	1.00
6.00	-14.00	8.00	20.00	7.00	6.00	3.00
3.00	-34.00	6.00	25.00	9.00	8.00	2.00
1.00	-43.00	4.00	24.00	7.00	7.00	-1.00
4.00	-39.00	6.00	20.00	3.00	7.00	-2.00
0.00	-28.00	9.00	14.00	-8.00	9.00	-4.00
0.00	-9.00	6.00	7.00	-12.00	8.00	-2.00
1.00	22.00	4.00	-2.00	-1.00	8.00	1.00
3.00	50.00	4.00	-4.00	5.00	7.00	4.00
2.00	71.00	-1.00	0.00	11.00	7.00	3.00
-1.00	67.00	-1.00	-5.00	13.00	8.00	5.00
-1.00	52.00	5.00	-6.00	11.00	5.00	2.00
-3.00	50.00	7.00	2.00	12.00	6.00	0.00
-1.00	46.00	4.00	7.00	18.00	7.00	-4.00
2.00	29.00	1.00	8.00	19.00	11.00	3.00
1.00	14.00	-5.00	4.00	19.00	12.00	-2.00
-3.00	4.00	-10.00	-7.00	17.00	12.00	-3.00
-2.00	-4.00	-15.00	-19.00	19.00	14.00	0.00
0.00	-8.00	-18.00	-27.00	24.00	12.00	-3.00
-4.00	-9.00	-16.00	-24.00	49.00	15.00	-3.00
-2.00	-11.00	-14.00	-15.00	56.00	12.00	1.00
0.00	-6.00	-6.00	-7.00	43.00	13.00	-5.00
1.00	-3.00	-1.00	-7.00	27.00	11.00	-12.00
2.00	0.00	3.00	-4.00	12.00	10.00	-14.00
3.00	-1.00	5.00	0.00	0.00	11.00	-14.00
2.00	1.00	7.00	5.00	-10.00	10.00	-11.00
-1.00	4.00	6.00	7.00	-20.00	9.00	-10.00
2.00	5.00	9.00	11.00	-7.00	8.00	-6.00
2.00	13.00	15.00	15.00	4.00	7.00	-2.00
2.00	17.00	15.00	17.00	1.00	8.00	-7.00
-1.00	15.00	12.00	18.00	0.00	8.00	-10.00
-4.00	15.00	11.00	17.00	4.00	8.00	6.00
-8.00	18.00	13.00	16.00	5.00	5.00	16.00
-7.00	21.00	11.00	15.00	1.00	6.00	23.00
-9.00	17.00	4.00	13.00	-4.00	8.00	25.00
-9.00	10.00	2.00	14.00	-11.00	7.00	25.00
-6.00	5.00	-2.00	13.00	-10.00	7.00	26.00
-4.00	2.00	-4.00	11.00	-8.00	4.00	17.00
-4.00	0.00	-9.00	10.00	-5.00	6.00	9.00
-3.00	-6.00	-13.00	10.00	5.00	5.00	0.00
1.00	-10.00	-13.00	10.00	58.00	3.00	0.00
2.00	-25.00	-5.00	13.00	74.00	7.00	-2.00
5.00	-34.00	1.00	15.00	59.00	8.00	-2.00
2.00	-34.00	2.00	16.00	33.00	5.00	-4.00
3.00	-22.00	4.00	19.00	8.00	7.00	-1.00
3.00	-3.00	2.00	16.00	-14.00	5.00	0.00
2.00	21.00	0.00	14.00	-30.00	5.00	4.00
1.00	35.00	1.00	12.00	-38.00	5.00	11.00
0.00	58.00	0.00	11.00	-37.00	8.00	4.00
-4.00	74.00	-3.00	8.00	-23.00	8.00	-2.00
-3.00	68.00	-2.00	7.00	1.00	7.00	-4.00
-1.00	52.00	0.00	7.00	41.00	10.00	-6.00
-2.00	39.00	1.00	5.00	51.00	9.00	-6.00
0.00	35.00	3.00	5.00	39.00	7.00	-11.00
1.00	32.00	5.00	6.00	26.00	7.00	-1.00
-7.00	29.00	6.00	6.00	12.00	7.00	-2.00
-8.00	17.00	8.00	9.00	1.00	9.00	-5.00
-3.00	7.00	7.00	8.00	0.00	9.00	-8.00
-5.00	5.00	8.00	8.00	-4.00	10.00	-7.00
-7.00	5.00	5.00	8.00	-12.00	8.00	-10.00
-4.00	9.00	5.00	10.00	-10.00	9.00	-6.00
3.00	4.00	7.00	14.00	-4.00	11.00	-6.00
3.00	6.00	3.00	13.00	-3.00	10.00	-6.00
8.00	9.00	4.00	13.00	5.00	11.00	-6.00
5.00	-4.00	1.00	11.00	25.00	10.00	0.00
10.00	-49.00	2.00	10.00	28.00	11.00	1.00
7.00	-70.00	0.00	7.00	23.00	10.00	-3.00
6.00	-67.00	0.00	7.00	19.00	10.00	-5.00
3.00	-46.00	2.00	6.00	16.00	11.00	-1.00
1.00	-27.00	2.00	7.00	9.00	10.00	1.00
2.00	4.00	0.00	7.00	2.00	10.00	0.00
2.00	32.00	-1.00	7.00	0.00	9.00	0.00
-2.00	51.00	-4.00	7.00	4.00	10.00	1.00
-5.00	65.00	-5.00	5.00	8.00	9.00	3.00
-7.00	69.00	-9.00	1.00	10.00	8.00	2.00
-8.00	78.00	-7.00	0.00	11.00	9.00	2.00
-13.00	111.00	-5.00	-2.00	10.00	8.00	0.00
-10.00	138.00	-3.00	-4.00	13.00	6.00	2.00
-13.00	108.00	-2.00	-2.00	12.00	6.00	4.00
-13.00	79.00	-3.00	0.00	14.00	3.00	1.00
-10.00	64.00	1.00	4.00	19.00	6.00	6.00
-8.00	44.00	2.00	5.00	37.00	2.00	2.00
-5.00	18.00	1.00	3.00	37.00	4.00	2.00
-5.00	2.00	-1.00	3.00	30.00	5.00	2.00
-4.00	-3.00	-1.00	4.00	23.00	7.00	4.00
-3.00	-12.00	0.00	4.00	13.00	7.00	3.00
-6.00	-33.00	-1.00	5.00	4.00	7.00	-2.00
-3.00	-40.00	-1.00	5.00	-6.00	6.00	-3.00
-4.00	-34.00	2.00	7.00	-11.00	6.00	0.00
-4.00	-22.00	6.00	9.00	-15.00	6.00	-1.00
-3.00	-7.00	13.00	10.00	-14.00	8.00	0.00
6.00	9.00	12.00	9.00	-8.00	10.00	5.00
-2.00	19.00	8.00	7.00	4.00	6.00	2.00
0.00	20.00	8.00	8.00	12.00	6.00	-6.00
-1.00	23.00	3.00	5.00	12.00	4.00	-5.00
3.00	12.00	-5.00	3.00	18.00	6.00	3.00
5.00	4.00	-6.00	4.00	39.00	6.00	2.00
8.00	3.00	-7.00	5.00	51.00	8.00	5.00
5.00	-1.00	-10.00	5.00	46.00	10.00	0.00
3.00	-14.00	-14.00	4.00	53.00	10.00	-1.00
9.00	-18.00	-10.00	3.00	73.00	9.00	5.00
9.00	-14.00	-7.00	2.00	69.00	10.00	4.00
5.00	-9.00	-3.00	-2.00	44.00	11.00	1.00
2.00	-4.00	-2.00	2.00	7.00	12.00	-8.00
-3.00	-22.00	4.00	6.00	-22.00	11.00	-6.00
-8.00	-48.00	5.00	9.00	-37.00	13.00	-3.00
-19.00	-49.00	5.00	10.00	-44.00	12.00	-2.00
-14.00	-28.00	5.00	11.00	-47.00	12.00	1.00
-19.00	-9.00	4.00	11.00	-46.00	12.00	-1.00
-9.00	3.00	4.00	8.00	-37.00	12.00	2.00
-1.00	21.00	5.00	7.00	-22.00	10.00	1.00
2.00	42.00	6.00	9.00	-11.00	11.00	1.00
1.00	51.00	7.00	10.00	-5.00	9.00	2.00
8.00	53.00	6.00	8.00	-1.00	8.00	-15.00
7.00	41.00	5.00	5.00	3.00	6.00	-14.00
7.00	34.00	4.00	5.00	7.00	7.00	0.00
3.00	32.00	0.00	6.00	13.00	6.00	5.00
6.00	42.00	1.00	8.00	20.00	6.00	-2.00
9.00	38.00	0.00	4.00	19.00	5.00	-4.00
5.00	31.00	0.00	-2.00	18.00	4.00	-9.00
4.00	13.00	1.00	-2.00	18.00	3.00	3.00
5.00	-2.00	2.00	0.00	21.00	3.00	10.00
5.00	-25.00	2.00	-2.00	25.00	3.00	11.00
3.00	-36.00	1.00	-3.00	26.00	2.00	9.00
2.00	-24.00	2.00	0.00	29.00	6.00	14.00
2.00	-6.00	3.00	4.00	28.00	8.00	16.00
2.00	12.00	2.00	9.00	26.00	5.00	12.00
2.00	27.00	2.00	10.00	24.00	5.00	5.00
2.00	12.00	2.00	11.00	23.00	5.00	-4.00
2.00	-12.00	4.00	14.00	24.00	6.00	-12.00
-1.00	-15.00	5.00	16.00	24.00	7.00	-7.00
-1.00	-12.00	5.00	14.00	23.00	8.00	-1.00
-1.00	1.00	3.00	10.00	19.00	7.00	-3.00
-1.00	22.00	3.00	10.00	16.00	6.00	3.00
-2.00	44.00	4.00	11.00	15.00	6.00	10.00
0.00	64.00	4.00	12.00	12.00	7.00	9.00
0.00	82.00	3.00	14.00	10.00	7.00	-1.00
-2.00	78.00	1.00	11.00	10.00	6.00	-8.00
-3.00	54.00	-1.00	11.00	12.00	9.00	2.00
-6.00	38.00	-3.00	4.00	9.00	9.00	-1.00
-6.00	33.00	-3.00	-2.00	9.00	9.00	1.00
-6.00	25.00	-3.00	-2.00	7.00	9.00	0.00
-2.00	20.00	-2.00	4.00	9.00	10.00	2.00
-2.00	5.00	1.00	7.00	10.00	11.00	1.00
-2.00	-10.00	2.00	9.00	10.00	13.00	-2.00
0.00	-11.00	2.00	8.00	11.00	14.00	-4.00
2.00	-6.00	1.00	4.00	10.00	13.00	-1.00
3.00	-1.00	-2.00	-2.00	13.00	11.00	-1.00
3.00	4.00	-3.00	0.00	14.00	10.00	-2.00
6.00	11.00	2.00	6.00	19.00	15.00	2.00
3.00	-1.00	1.00	7.00	16.00	12.00	0.00
0.00	-15.00	-2.00	5.00	10.00	9.00	-4.00
-5.00	-37.00	-1.00	9.00	11.00	8.00	0.00
-5.00	-42.00	0.00	11.00	13.00	9.00	2.00
-7.00	-32.00	0.00	10.00	23.00	9.00	5.00
-5.00	-14.00	0.00	8.00	29.00	10.00	6.00
-5.00	4.00	-1.00	7.00	27.00	10.00	2.00
-6.00	30.00	0.00	10.00	21.00	7.00	-5.00
1.00	54.00	0.00	8.00	20.00	8.00	-6.00
1.00	61.00	-2.00	6.00	15.00	7.00	-10.00
0.00	37.00	-2.00	3.00	12.00	4.00	-8.00
-2.00	13.00	1.00	5.00	7.00	6.00	-5.00
-10.00	2.00	4.00	7.00	2.00	6.00	-3.00
-12.00	3.00	6.00	9.00	-2.00	6.00	-3.00
-10.00	22.00	8.00	11.00	-4.00	6.00	-1.00
-6.00	36.00	7.00	12.00	-4.00	7.00	2.00
-2.00	37.00	8.00	11.00	-3.00	7.00	5.00
2.00	36.00	4.00	8.00	-2.00	5.00	4.00
5.00	29.00	2.00	7.00	2.00	5.00	7.00
4.00	17.00	1.00	5.00	9.00	4.00	3.00
1.00	5.00	-3.00	2.00	14.00	3.00	4.00
2.00	-5.00	-2.00	4.00	15.00	7.00	5.00
0.00	4.00	-7.00	4.00	7.00	6.00	1.00
-4.00	17.00	-8.00	5.00	7.00	5.00	0.00
-3.00	33.00	-11.00	3.00	7.00	7.00	-2.00
0.00	48.00	-8.00	2.00	5.00	6.00	-5.00
0.00	51.00	-3.00	4.00	4.00	7.00	-2.00
3.00	44.00	0.00	4.00	3.00	9.00	3.00
4.00	31.00	1.00	4.00	2.00	8.00	-1.00
2.00	23.00	2.00	5.00	2.00	9.00	-9.00
2.00	14.00	3.00	7.00	3.00	12.00	2.00
3.00	8.00	2.00	10.00	6.00	12.00	-1.00
2.00	-1.00	2.00	10.00	3.00	13.00	-4.00
0.00	-3.00	2.00	10.00	2.00	9.00	-5.00
-1.00	-1.00	3.00	12.00	20.00	7.00	0.00
-1.00	-9.00	2.00	11.00	26.00	6.00	-4.00
-1.00	-20.00	3.00	14.00	26.00	9.00	-4.00
-1.00	-30.00	7.00	13.00	19.00	13.00	0.00
-3.00	-39.00	7.00	14.00	9.00	13.00	3.00
-3.00	-30.00	5.00	13.00	0.00	10.00	4.00
-3.00	-16.00	5.00	15.00	-5.00	11.00	8.00
-4.00	-43.00	1.00	17.00	-9.00	10.00	7.00
0.00	-51.00	2.00	17.00	-8.00	10.00	9.00
3.00	-22.00	2.00	16.00	-2.00	9.00	9.00
1.00	6.00	-1.00	13.00	5.00	8.00	6.00
-2.00	31.00	3.00	10.00	13.00	9.00	5.00
