
	-4.00	281.00	176.00	-74.00	-71.00	85.00	-31.00
	9.00	194.00	175.00	-145.00	-70.00	91.00	-39.00
	12.00	87.00	151.00	-149.00	-88.00	52.00	-34.00
	9.00	-14.00	216.00	-198.00	-42.00	82.00	-28.00
	4.00	-137.00	254.00	-112.00	-22.00	78.00	-12.00
	11.00	-203.00	161.00	-41.00	19.00	136.00	12.00
	2.00	-237.00	7.00	-14.00	24.00	129.00	10.00
	1.00	-284.00	-92.00	141.00	3.00	104.00	-3.00
	-1.00	-274.00	-182.00	311.00	-32.00	14.00	5.00
	-16.00	-222.00	-137.00	335.00	-103.00	-43.00	9.00
	-16.00	-117.00	-113.00	118.00	-138.00	-98.00	-1.00
	-15.00	-10.00	-10.00	94.00	-114.00	-109.00	1.00
	-11.00	48.00	209.00	112.00	-79.00	-43.00	-6.00
	-16.00	131.00	303.00	74.00	-20.00	97.00	-21.00
	-16.00	266.00	109.00	-23.00	50.00	105.00	-31.00
	-16.00	346.00	-151.00	-174.00	34.00	31.00	-27.00
	-6.00	356.00	-320.00	-138.00	42.00	-9.00	-2.00
	-14.00	401.00	-473.00	-55.00	4.00	-130.00	15.00
	-7.00	314.00	-316.00	-96.00	-50.00	-185.00	3.00
	7.00	137.00	-149.00	56.00	3.00	-149.00	14.00
	25.00	-41.00	-171.00	258.00	91.00	51.00	21.00
	10.00	-217.00	-175.00	279.00	37.00	17.00	40.00
	2.00	-383.00	-107.00	217.00	18.00	60.00	47.00
	12.00	-459.00	-45.00	176.00	49.00	124.00	26.00
	8.00	-479.00	28.00	169.00	27.00	125.00	8.00
	13.00	-438.00	21.00	46.00	28.00	78.00	11.00
	14.00	-355.00	4.00	1.00	25.00	39.00	2.00
	14.00	-258.00	23.00	-73.00	10.00	29.00	7.00
	2.00	-168.00	4.00	-118.00	20.00	36.00	8.00
	0.00	-103.00	-11.00	-95.00	35.00	4.00	5.00
	0.00	-53.00	-37.00	-20.00	9.00	-60.00	16.00
	-8.00	15.00	26.00	47.00	28.00	-29.00	-7.00
	-10.00	80.00	113.00	-2.00	44.00	40.00	6.00
	-8.00	101.00	236.00	-69.00	19.00	31.00	10.00
	11.00	128.00	313.00	-103.00	15.00	-8.00	16.00
	19.00	164.00	269.00	-154.00	-13.00	-46.00	8.00
	19.00	170.00	200.00	-98.00	-23.00	-40.00	-15.00
	16.00	186.00	65.00	-86.00	-7.00	-57.00	3.00
	11.00	198.00	-59.00	-80.00	8.00	-96.00	27.00
	16.00	175.00	-130.00	5.00	5.00	-117.00	37.00
	19.00	152.00	-173.00	74.00	0.00	-127.00	27.00
	23.00	149.00	-99.00	26.00	4.00	-97.00	-20.00
	29.00	121.00	-19.00	23.00	20.00	-127.00	-26.00
	14.00	122.00	33.00	35.00	68.00	28.00	-6.00
	5.00	106.00	74.00	52.00	80.00	115.00	-7.00
	-3.00	102.00	96.00	43.00	57.00	113.00	-28.00
	-1.00	91.00	106.00	34.00	20.00	30.00	-22.00
	-2.00	89.00	133.00	51.00	5.00	-56.00	-12.00
	4.00	73.00	98.00	42.00	14.00	-21.00	-5.00
	5.00	52.00	26.00	10.00	45.00	39.00	-1.00
	12.00	67.00	29.00	-69.00	42.00	14.00	0.00
	24.00	76.00	80.00	-74.00	35.00	20.00	5.00
	13.00	87.00	81.00	-83.00	45.00	20.00	-9.00
	-9.00	70.00	130.00	-174.00	17.00	-4.00	1.00
	-18.00	76.00	318.00	-127.00	-10.00	-4.00	0.00
	4.00	77.00	334.00	-64.00	-104.00	-46.00	-8.00
	10.00	90.00	181.00	-88.00	-94.00	-49.00	-54.00
	-1.00	104.00	48.00	-48.00	28.00	152.00	-68.00
	-6.00	111.00	-149.00	-66.00	54.00	162.00	-79.00
	-27.00	163.00	-293.00	-12.00	14.00	20.00	-87.00
	-20.00	206.00	-186.00	28.00	9.00	-112.00	-82.00
	-33.00	185.00	-138.00	-38.00	23.00	-105.00	-107.00
	-29.00	128.00	-238.00	-33.00	-72.00	-93.00	-58.00
	-34.00	35.00	-206.00	65.00	-100.00	49.00	25.00
	-25.00	-73.00	-213.00	163.00	28.00	113.00	60.00
	-40.00	-149.00	-175.00	166.00	67.00	93.00	110.00
	-42.00	-203.00	-76.00	139.00	101.00	20.00	140.00
	-42.00	-215.00	-89.00	76.00	123.00	29.00	117.00
	-48.00	-181.00	-206.00	-58.00	149.00	34.00	75.00
	-53.00	-152.00	-259.00	-94.00	159.00	7.00	50.00
	-47.00	-122.00	-130.00	-84.00	110.00	-56.00	83.00
	-29.00	-116.00	-6.00	-48.00	43.00	-46.00	83.00
	-34.00	-87.00	51.00	-3.00	40.00	13.00	62.00
	-28.00	-49.00	160.00	141.00	53.00	43.00	81.00
	-2.00	-29.00	153.00	227.00	-79.00	37.00	126.00
	4.00	-20.00	72.00	161.00	-157.00	38.00	120.00
	6.00	14.00	23.00	41.00	-166.00	9.00	89.00
	15.00	123.00	-50.00	-116.00	-91.00	9.00	54.00
	15.00	271.00	-42.00	-110.00	-9.00	94.00	50.00
	10.00	348.00	1.00	-43.00	16.00	30.00	21.00
	13.00	316.00	2.00	-79.00	22.00	-15.00	7.00
	16.00	184.00	-96.00	-80.00	22.00	-18.00	-49.00
	12.00	-6.00	-38.00	-4.00	29.00	15.00	-79.00
	10.00	-162.00	17.00	111.00	18.00	24.00	-55.00
	10.00	-274.00	-78.00	184.00	30.00	35.00	-59.00
	7.00	-354.00	-51.00	205.00	51.00	28.00	-54.00
	12.00	-390.00	45.00	200.00	85.00	38.00	-18.00
	18.00	-341.00	104.00	195.00	73.00	65.00	-10.00
	14.00	-264.00	135.00	163.00	53.00	8.00	-9.00
	9.00	-187.00	71.00	73.00	53.00	-20.00	-13.00
	-7.00	-7.00	35.00	63.00	87.00	45.00	-46.00
	-6.00	86.00	-15.00	23.00	63.00	51.00	-79.00
	-1.00	196.00	26.00	-40.00	25.00	11.00	-70.00
	-2.00	255.00	25.00	-193.00	-18.00	-21.00	-35.00
	-9.00	211.00	82.00	-324.00	-70.00	-40.00	-13.00
	-2.00	160.00	78.00	-283.00	-70.00	-22.00	-41.00
	-3.00	97.00	96.00	-154.00	-35.00	25.00	-56.00
	-11.00	14.00	86.00	36.00	-12.00	30.00	-29.00
	-10.00	-35.00	-16.00	182.00	-21.00	-4.00	-20.00
	0.00	-68.00	-81.00	170.00	-27.00	-56.00	-21.00
	7.00	-135.00	96.00	107.00	-18.00	-64.00	-53.00
	11.00	-149.00	213.00	134.00	-21.00	-77.00	-32.00
	11.00	-120.00	220.00	-9.00	-13.00	-88.00	-19.00
	7.00	-87.00	134.00	-54.00	22.00	-36.00	9.00
	8.00	-63.00	-101.00	28.00	12.00	-17.00	44.00
	6.00	-37.00	-304.00	-5.00	-8.00	-17.00	-63.00
	4.00	9.00	-274.00	-121.00	-73.00	-37.00	-35.00
	4.00	75.00	-1.00	-87.00	-130.00	-3.00	-23.00
	3.00	97.00	149.00	34.00	-112.00	-23.00	-49.00
	5.00	98.00	157.00	159.00	-103.00	-93.00	-35.00
	8.00	69.00	89.00	179.00	-68.00	-40.00	-1.00
	21.00	75.00	-125.00	144.00	39.00	70.00	17.00
	11.00	72.00	-203.00	132.00	146.00	232.00	-3.00
	7.00	71.00	-154.00	45.00	127.00	179.00	2.00
	13.00	72.00	-97.00	-38.00	103.00	71.00	26.00
	4.00	53.00	-20.00	-90.00	97.00	38.00	-6.00
	-11.00	38.00	-6.00	-216.00	75.00	30.00	-1.00
	-18.00	43.00	-57.00	-253.00	12.00	-2.00	38.00
	-14.00	54.00	-147.00	-230.00	-25.00	-13.00	17.00
	-25.00	65.00	-142.00	-164.00	27.00	-6.00	30.00
	-19.00	65.00	-9.00	-89.00	91.00	50.00	19.00
	-15.00	52.00	89.00	16.00	95.00	64.00	-26.00
	-17.00	52.00	70.00	65.00	40.00	-9.00	34.00
	-17.00	73.00	-3.00	41.00	34.00	-40.00	41.00
	-17.00	81.00	4.00	78.00	6.00	-99.00	-2.00
	-2.00	68.00	227.00	58.00	26.00	-72.00	-30.00
	5.00	152.00	306.00	-64.00	41.00	6.00	-53.00
	6.00	427.00	358.00	-96.00	15.00	-35.00	-6.00
	9.00	504.00	438.00	-32.00	86.00	164.00	-4.00
	21.00	419.00	329.00	12.00	100.00	151.00	21.00
	24.00	261.00	130.00	35.00	50.00	50.00	26.00
	6.00	85.00	-19.00	130.00	0.00	68.00	15.00
	0.00	-99.00	-148.00	77.00	-119.00	0.00	43.00
	-10.00	-236.00	-151.00	-21.00	-130.00	23.00	60.00
	-13.00	-323.00	-293.00	-54.00	-196.00	62.00	59.00
	-25.00	-349.00	-238.00	18.00	-134.00	34.00	29.00
	-36.00	-342.00	-135.00	85.00	-43.00	57.00	34.00
	-41.00	-322.00	-189.00	52.00	23.00	15.00	24.00
	-33.00	-273.00	-211.00	81.00	89.00	-46.00	18.00
	-19.00	-242.00	-149.00	57.00	168.00	-54.00	9.00
	-9.00	-178.00	-105.00	21.00	207.00	-64.00	8.00
	-4.00	-85.00	-88.00	-59.00	211.00	-43.00	5.00
	2.00	-33.00	-38.00	-35.00	211.00	43.00	-5.00
	0.00	13.00	29.00	3.00	175.00	49.00	-23.00
	4.00	133.00	76.00	8.00	80.00	-6.00	-15.00
	5.00	204.00	117.00	-28.00	26.00	-11.00	3.00
	10.00	186.00	134.00	8.00	4.00	29.00	-22.00
	16.00	140.00	117.00	43.00	8.00	53.00	-23.00
	22.00	83.00	43.00	65.00	-64.00	-25.00	-22.00
	22.00	14.00	-40.00	125.00	-76.00	-3.00	-6.00
	10.00	-7.00	-73.00	84.00	-77.00	-6.00	7.00
	-3.00	-64.00	62.00	-62.00	-100.00	12.00	15.00
	12.00	-89.00	76.00	-65.00	-41.00	17.00	20.00
	15.00	-71.00	93.00	-67.00	-12.00	57.00	26.00
	22.00	-29.00	91.00	-79.00	-115.00	-2.00	-11.00
	25.00	11.00	125.00	-76.00	-199.00	-30.00	-25.00
	23.00	34.00	114.00	-4.00	-156.00	-44.00	-14.00
	21.00	54.00	69.00	-8.00	-120.00	-26.00	36.00
	12.00	68.00	-24.00	50.00	-14.00	111.00	43.00
	1.00	68.00	-41.00	140.00	53.00	73.00	74.00
	11.00	50.00	-70.00	221.00	113.00	-7.00	9.00
	7.00	70.00	-55.00	255.00	105.00	-10.00	-22.00
	6.00	128.00	-55.00	211.00	61.00	-46.00	-51.00
	2.00	152.00	-44.00	66.00	33.00	-59.00	-35.00
	7.00	121.00	-7.00	-35.00	-5.00	-58.00	-35.00
	10.00	80.00	2.00	-119.00	-21.00	-46.00	-37.00
	11.00	30.00	67.00	-123.00	-29.00	-49.00	-89.00
	8.00	-6.00	47.00	-74.00	-24.00	0.00	-63.00
	16.00	-24.00	-13.00	5.00	-13.00	-21.00	-99.00
	16.00	-21.00	93.00	50.00	28.00	-56.00	-87.00
	12.00	2.00	221.00	-20.00	33.00	26.00	-33.00
	4.00	38.00	176.00	-197.00	33.00	46.00	6.00
	14.00	90.00	75.00	-270.00	24.00	108.00	52.00
	25.00	110.00	-39.00	-268.00	42.00	105.00	61.00
	18.00	132.00	-192.00	-112.00	5.00	30.00	50.00
	-5.00	210.00	-138.00	133.00	-120.00	-44.00	79.00
	-11.00	211.00	38.00	229.00	-84.00	56.00	113.00
	-15.00	135.00	14.00	180.00	23.00	51.00	111.00
	-8.00	32.00	-66.00	218.00	7.00	-2.00	123.00
	-10.00	-51.00	-227.00	188.00	33.00	3.00	105.00
	-25.00	-119.00	-294.00	157.00	75.00	32.00	71.00
	-26.00	-172.00	-226.00	145.00	94.00	14.00	14.00
	-21.00	-215.00	-208.00	19.00	61.00	-11.00	13.00
	-14.00	-215.00	-135.00	26.00	7.00	7.00	0.00
	-18.00	-174.00	10.00	55.00	-101.00	-11.00	-10.00
	-5.00	-128.00	122.00	26.00	-69.00	-28.00	-22.00
	1.00	-94.00	232.00	1.00	-58.00	-45.00	-39.00
	8.00	-65.00	253.00	-41.00	-16.00	-69.00	-34.00
	2.00	-37.00	176.00	-58.00	8.00	-66.00	-40.00
	3.00	-11.00	83.00	-93.00	65.00	9.00	-80.00
	3.00	4.00	49.00	-151.00	121.00	84.00	-85.00
	-2.00	5.00	23.00	-127.00	162.00	129.00	-39.00
	2.00	71.00	31.00	-84.00	153.00	74.00	-72.00
	-3.00	204.00	76.00	-28.00	145.00	63.00	-90.00
	-7.00	241.00	-3.00	20.00	125.00	56.00	-85.00
	-10.00	203.00	-59.00	54.00	90.00	-1.00	-70.00
	9.00	127.00	-148.00	-3.00	57.00	-59.00	-45.00
	17.00	72.00	-190.00	-22.00	26.00	-51.00	-14.00
	12.00	-21.00	-69.00	-52.00	7.00	-41.00	11.00
	9.00	-87.00	18.00	-163.00	-19.00	-27.00	28.00
	11.00	-86.00	5.00	-189.00	-2.00	-31.00	31.00
	11.00	-95.00	-40.00	-80.00	16.00	-25.00	25.00
	9.00	-94.00	-49.00	20.00	-64.00	-77.00	37.00
	3.00	-73.00	-123.00	38.00	3.00	64.00	5.00
	-2.00	-58.00	-134.00	43.00	-33.00	68.00	-5.00
	-31.00	3.00	-71.00	21.00	-42.00	37.00	-36.00
	-31.00	25.00	-37.00	8.00	-52.00	0.00	-43.00
	-27.00	49.00	15.00	-43.00	-27.00	24.00	-55.00
	-23.00	122.00	104.00	-126.00	6.00	22.00	-62.00
	-16.00	110.00	174.00	-87.00	-2.00	48.00	-70.00
	-24.00	89.00	176.00	-37.00	-5.00	62.00	-53.00
	-13.00	72.00	65.00	0.00	-6.00	38.00	-20.00
	0.00	71.00	-28.00	91.00	-40.00	-34.00	-3.00
	-4.00	91.00	194.00	105.00	-51.00	-28.00	32.00
	0.00	78.00	259.00	65.00	-42.00	-41.00	62.00
	15.00	13.00	198.00	-39.00	-20.00	-18.00	84.00
	19.00	-23.00	85.00	-77.00	16.00	8.00	77.00
	12.00	-9.00	-25.00	18.00	11.00	3.00	49.00
	5.00	-4.00	-100.00	75.00	30.00	31.00	43.00
	0.00	-7.00	-63.00	184.00	42.00	100.00	53.00
	-1.00	-16.00	-84.00	187.00	41.00	58.00	42.00
	-3.00	-41.00	-108.00	280.00	-42.00	43.00	17.00
	-1.00	-46.00	-205.00	266.00	-68.00	-23.00	19.00
	-5.00	-77.00	-190.00	63.00	-167.00	-47.00	34.00
	-10.00	-77.00	-127.00	-17.00	-136.00	-52.00	18.00
	-12.00	-29.00	-79.00	-29.00	-26.00	9.00	-56.00
	-19.00	-12.00	-40.00	-46.00	82.00	55.00	-79.00
	-16.00	-22.00	39.00	-48.00	146.00	-6.00	-38.00
	-11.00	-33.00	109.00	-63.00	141.00	-24.00	-31.00
	6.00	-47.00	180.00	-61.00	136.00	-15.00	-56.00
	11.00	-12.00	231.00	-128.00	157.00	-59.00	-2.00
	7.00	49.00	171.00	-137.00	153.00	-112.00	-29.00
	7.00	71.00	151.00	-74.00	100.00	-58.00	-33.00
	14.00	99.00	-71.00	12.00	60.00	30.00	-6.00
	2.00	135.00	-204.00	116.00	77.00	83.00	19.00
	-4.00	140.00	-150.00	234.00	-8.00	21.00	42.00
	-2.00	124.00	-217.00	236.00	-84.00	-12.00	6.00
	-8.00	48.00	-117.00	233.00	-102.00	-11.00	18.00
	1.00	50.00	156.00	171.00	-89.00	-11.00	43.00
	18.00	103.00	276.00	124.00	-71.00	19.00	51.00
	21.00	74.00	302.00	30.00	-20.00	99.00	52.00
	13.00	31.00	264.00	-12.00	16.00	110.00	51.00
	15.00	-14.00	83.00	-59.00	28.00	73.00	50.00
	19.00	-69.00	-131.00	-47.00	25.00	14.00	38.00
	8.00	-118.00	-141.00	1.00	29.00	-33.00	16.00
	-8.00	-142.00	-114.00	20.00	53.00	-25.00	-13.00
	-14.00	-157.00	-138.00	-7.00	45.00	-3.00	-39.00
	-9.00	-155.00	-145.00	-75.00	37.00	-35.00	-29.00
	-11.00	-135.00	-92.00	-56.00	35.00	12.00	-10.00
	-17.00	-116.00	-83.00	-126.00	20.00	35.00	-1.00
	-12.00	-54.00	-79.00	-224.00	52.00	36.00	-11.00
	-1.00	34.00	22.00	-184.00	43.00	-2.00	-44.00
	-5.00	146.00	135.00	-134.00	62.00	62.00	-63.00
	6.00	138.00	162.00	-133.00	43.00	99.00	-47.00
	-11.00	114.00	141.00	-164.00	0.00	39.00	-31.00
	-7.00	77.00	2.00	-132.00	-51.00	-73.00	-12.00
	2.00	25.00	-81.00	-70.00	-179.00	-56.00	-19.00
	0.00	-4.00	-50.00	-100.00	-161.00	36.00	10.00
	1.00	-25.00	-56.00	-207.00	-105.00	168.00	31.00
	1.00	-28.00	-95.00	-230.00	-75.00	148.00	2.00
	9.00	-16.00	-60.00	-130.00	4.00	75.00	32.00
	7.00	27.00	-77.00	1.00	96.00	14.00	4.00
	12.00	72.00	-27.00	227.00	155.00	-94.00	-76.00
	3.00	186.00	32.00	262.00	77.00	-159.00	-15.00
	-10.00	184.00	190.00	329.00	65.00	-39.00	-18.00
	-9.00	133.00	281.00	210.00	51.00	36.00	-37.00
	-11.00	84.00	170.00	96.00	77.00	64.00	-29.00
	-14.00	43.00	114.00	124.00	32.00	59.00	-14.00
	-12.00	4.00	6.00	119.00	22.00	73.00	-31.00
	-9.00	-22.00	-114.00	106.00	-15.00	65.00	-37.00
	6.00	-16.00	-203.00	99.00	-21.00	-2.00	-22.00
	6.00	-15.00	-169.00	140.00	-32.00	-45.00	-8.00
	10.00	-32.00	-86.00	164.00	-23.00	-14.00	11.00
	8.00	-49.00	20.00	157.00	-48.00	-58.00	18.00
	3.00	-60.00	-9.00	169.00	-40.00	-13.00	25.00
	-16.00	-76.00	-16.00	129.00	-26.00	-1.00	38.00
	-14.00	-71.00	-51.00	-39.00	-14.00	10.00	37.00
	-18.00	-43.00	-50.00	-144.00	-37.00	-24.00	31.00
	-23.00	-21.00	-19.00	-201.00	-14.00	63.00	32.00
	-32.00	4.00	-35.00	-265.00	-3.00	63.00	31.00
	-41.00	49.00	-49.00	-260.00	9.00	-26.00	15.00
	-17.00	99.00	3.00	-204.00	21.00	-80.00	-3.00
	-3.00	131.00	62.00	-120.00	13.00	-128.00	-13.00
	-1.00	156.00	43.00	-103.00	-9.00	-137.00	-26.00
	4.00	130.00	34.00	-103.00	-10.00	-36.00	-22.00
	15.00	64.00	-69.00	-42.00	-69.00	-81.00	-37.00
	17.00	9.00	-81.00	64.00	-37.00	-77.00	-59.00
	24.00	-43.00	16.00	189.00	70.00	63.00	-7.00
	23.00	-77.00	-9.00	272.00	57.00	61.00	35.00
	3.00	-89.00	-12.00	330.00	98.00	38.00	-9.00
	-4.00	-95.00	18.00	229.00	122.00	30.00	18.00
	-7.00	-52.00	116.00	61.00	136.00	15.00	39.00
	-3.00	16.00	156.00	16.00	113.00	-53.00	38.00
	1.00	36.00	296.00	-20.00	94.00	-10.00	7.00
	-9.00	43.00	314.00	-98.00	116.00	61.00	36.00
	-1.00	39.00	151.00	-67.00	110.00	88.00	42.00
	-4.00	51.00	42.00	-31.00	68.00	61.00	41.00
	-2.00	71.00	-82.00	-74.00	28.00	67.00	29.00
	8.00	63.00	-194.00	-64.00	-30.00	37.00	45.00
	12.00	106.00	-81.00	-74.00	-64.00	-5.00	41.00
	15.00	182.00	52.00	-69.00	-33.00	109.00	13.00
	17.00	200.00	135.00	-86.00	-39.00	126.00	-5.00
	21.00	172.00	152.00	-57.00	-85.00	6.00	0.00
	22.00	88.00	107.00	41.00	-108.00	-37.00	4.00
	21.00	48.00	25.00	165.00	-62.00	38.00	5.00
	5.00	29.00	-52.00	138.00	-21.00	23.00	0.00
	-15.00	65.00	-25.00	73.00	-125.00	-2.00	-13.00
	-38.00	60.00	-72.00	27.00	-100.00	17.00	-25.00
	-42.00	-2.00	-245.00	-54.00	-16.00	-12.00	-53.00
	-44.00	-50.00	-266.00	-105.00	74.00	23.00	-84.00
	-28.00	-88.00	-235.00	-116.00	100.00	-12.00	-108.00
	-7.00	-149.00	-172.00	-109.00	121.00	-41.00	-114.00
	6.00	-175.00	-150.00	-69.00	162.00	-16.00	-109.00
	1.00	-155.00	-85.00	-20.00	158.00	-4.00	-100.00
	0.00	-162.00	-56.00	21.00	131.00	-22.00	-53.00
	-8.00	-196.00	-74.00	30.00	72.00	-68.00	-37.00
	-3.00	-197.00	-18.00	47.00	40.00	-58.00	14.00
	4.00	-170.00	17.00	18.00	48.00	97.00	78.00
	-2.00	-133.00	74.00	57.00	19.00	150.00	116.00
	5.00	-77.00	50.00	53.00	-27.00	57.00	116.00
	14.00	7.00	53.00	-25.00	-28.00	-10.00	110.00
	19.00	85.00	80.00	-92.00	-36.00	-24.00	95.00
	16.00	125.00	114.00	-45.00	-46.00	16.00	85.00
	3.00	142.00	113.00	-24.00	-49.00	7.00	60.00
	12.00	125.00	21.00	-53.00	-40.00	-56.00	-5.00
	28.00	98.00	-54.00	37.00	-37.00	36.00	29.00
	16.00	113.00	19.00	236.00	-15.00	56.00	17.00
	-9.00	169.00	75.00	172.00	-64.00	5.00	-5.00
	-8.00	193.00	129.00	68.00	-146.00	17.00	-22.00
	-4.00	156.00	210.00	-11.00	-130.00	6.00	28.00
	-1.00	114.00	173.00	-12.00	-17.00	43.00	6.00
	-14.00	56.00	133.00	5.00	53.00	106.00	-10.00
	-24.00	-15.00	87.00	63.00	55.00	101.00	-36.00
	-22.00	-59.00	-53.00	123.00	40.00	25.00	-37.00
	-9.00	-106.00	-2.00	137.00	48.00	9.00	-16.00
	-3.00	-158.00	-3.00	97.00	-34.00	-44.00	-7.00
	4.00	-150.00	-79.00	-40.00	-85.00	-102.00	-24.00
	0.00	-101.00	-57.00	-47.00	-1.00	23.00	-18.00
	-12.00	-69.00	15.00	18.00	29.00	154.00	17.00
	3.00	-42.00	-12.00	10.00	-6.00	26.00	17.00
	6.00	-29.00	-64.00	-57.00	-90.00	-75.00	20.00
	5.00	-6.00	-37.00	-51.00	-129.00	-29.00	14.00
	3.00	-11.00	1.00	-80.00	-30.00	52.00	0.00
	-3.00	24.00	-18.00	-154.00	46.00	22.00	28.00
	-9.00	81.00	-47.00	-71.00	101.00	-87.00	60.00
	-7.00	71.00	-21.00	4.00	244.00	48.00	6.00
	-16.00	88.00	0.00	10.00	237.00	41.00	-29.00
	-2.00	68.00	-105.00	13.00	143.00	-84.00	-26.00
	1.00	38.00	-21.00	9.00	123.00	58.00	-14.00
	5.00	40.00	155.00	30.00	134.00	170.00	-8.00
	4.00	38.00	200.00	-66.00	99.00	114.00	50.00
	12.00	58.00	163.00	-208.00	85.00	58.00	13.00
	28.00	162.00	1.00	-193.00	98.00	51.00	-9.00
	25.00	292.00	-60.00	-45.00	26.00	4.00	-3.00
	19.00	264.00	39.00	95.00	-24.00	-62.00	8.00
	6.00	200.00	72.00	223.00	-30.00	-96.00	2.00
	-2.00	155.00	93.00	350.00	-39.00	-121.00	-8.00
	3.00	124.00	93.00	329.00	21.00	15.00	-29.00
	-5.00	107.00	-96.00	181.00	-6.00	62.00	-43.00
	-25.00	41.00	-90.00	11.00	-20.00	50.00	-30.00
	-15.00	-25.00	39.00	-115.00	-31.00	-8.00	-10.00
	-6.00	-97.00	51.00	-122.00	-56.00	-51.00	3.00
	-1.00	-143.00	-16.00	-40.00	-120.00	-65.00	-11.00
	1.00	-163.00	-79.00	-2.00	-128.00	-69.00	28.00
	2.00	-191.00	-28.00	-11.00	-88.00	-34.00	25.00
	-10.00	-222.00	-112.00	-7.00	-47.00	18.00	34.00
	-16.00	-211.00	-222.00	-48.00	-28.00	-1.00	33.00
	0.00	-142.00	-250.00	-18.00	-12.00	-37.00	61.00
	8.00	-96.00	-263.00	68.00	-21.00	-82.00	81.00
	-12.00	0.00	-311.00	16.00	13.00	-57.00	76.00
	-14.00	24.00	-316.00	60.00	44.00	-76.00	78.00
	-19.00	0.00	-151.00	-15.00	47.00	-50.00	59.00
	-21.00	-6.00	-50.00	-64.00	50.00	-48.00	39.00
	-12.00	-31.00	-38.00	-90.00	76.00	18.00	12.00
	-15.00	-41.00	-3.00	-48.00	49.00	78.00	0.00
	-11.00	-44.00	28.00	28.00	49.00	68.00	-38.00
	-1.00	-59.00	55.00	50.00	-1.00	-15.00	-70.00
	1.00	-77.00	95.00	84.00	-45.00	-14.00	-75.00
	2.00	-44.00	137.00	68.00	9.00	66.00	-47.00
	15.00	10.00	117.00	-21.00	32.00	60.00	-53.00
	24.00	135.00	106.00	-79.00	-14.00	35.00	0.00
	31.00	286.00	116.00	-103.00	-61.00	-1.00	17.00
	26.00	358.00	120.00	-67.00	-49.00	-41.00	13.00
	32.00	332.00	98.00	-22.00	-38.00	-87.00	33.00
	35.00	231.00	119.00	-33.00	37.00	-10.00	28.00
	13.00	123.00	182.00	-98.00	85.00	-42.00	-12.00
	7.00	47.00	222.00	-61.00	70.00	-3.00	-32.00
	9.00	-42.00	200.00	-62.00	21.00	-2.00	-24.00
	13.00	-52.00	73.00	37.00	-50.00	-12.00	-50.00
	15.00	-85.00	-44.00	85.00	-1.00	113.00	-131.00
	17.00	-150.00	85.00	141.00	44.00	72.00	-108.00
	35.00	-163.00	77.00	131.00	25.00	26.00	-77.00
	27.00	-172.00	53.00	35.00	2.00	102.00	-55.00
	7.00	-163.00	183.00	50.00	10.00	112.00	-82.00
	4.00	-148.00	160.00	59.00	-45.00	-42.00	-47.00
	1.00	-60.00	82.00	81.00	48.00	46.00	-51.00
	7.00	54.00	-7.00	58.00	82.00	124.00	-39.00
	3.00	109.00	-65.00	76.00	18.00	48.00	-14.00
	-1.00	99.00	-68.00	-44.00	-90.00	-11.00	-4.00
	-13.00	85.00	-176.00	-150.00	-51.00	23.00	3.00
	-26.00	52.00	-142.00	-136.00	-15.00	59.00	11.00
	-32.00	-2.00	-8.00	-65.00	-21.00	48.00	30.00
	-21.00	-13.00	6.00	27.00	-26.00	22.00	36.00
	-25.00	19.00	65.00	118.00	69.00	21.00	8.00
	-9.00	65.00	22.00	181.00	155.00	-12.00	-16.00
	-8.00	146.00	-39.00	157.00	144.00	-15.00	-3.00
	-11.00	177.00	-108.00	47.00	76.00	-72.00	-4.00
	-15.00	134.00	-127.00	-10.00	104.00	-85.00	27.00
	-12.00	61.00	-198.00	-105.00	124.00	48.00	19.00
	-16.00	1.00	-163.00	-119.00	-24.00	18.00	-7.00
	-20.00	-62.00	-70.00	-26.00	-101.00	65.00	-33.00
	-22.00	-82.00	27.00	-16.00	-70.00	39.00	-34.00
	-3.00	-44.00	141.00	-149.00	-23.00	-37.00	-70.00
	9.00	-17.00	242.00	-148.00	40.00	-25.00	-100.00
	17.00	27.00	347.00	-83.00	101.00	-22.00	-87.00
	20.00	136.00	344.00	-100.00	54.00	-19.00	-3.00
	38.00	192.00	191.00	-117.00	88.00	-44.00	10.00
	43.00	156.00	37.00	-82.00	87.00	-106.00	41.00
	24.00	59.00	-101.00	-41.00	147.00	-15.00	36.00
	8.00	-46.00	-71.00	126.00	217.00	58.00	-6.00
	-3.00	-129.00	-187.00	227.00	116.00	-6.00	66.00
	-6.00	-194.00	-394.00	350.00	43.00	31.00	53.00
	-25.00	-218.00	-423.00	372.00	20.00	55.00	29.00
	-36.00	-220.00	-400.00	273.00	-71.00	-17.00	46.00
	-29.00	-180.00	-310.00	198.00	-47.00	20.00	60.00
	-23.00	-145.00	-210.00	101.00	-73.00	0.00	77.00
	-41.00	-110.00	-204.00	-12.00	-160.00	3.00	65.00
	-39.00	-57.00	-107.00	-81.00	-194.00	40.00	23.00
	-29.00	85.00	-3.00	-94.00	-138.00	59.00	12.00
	-29.00	208.00	65.00	-85.00	-80.00	48.00	-6.00
	-19.00	275.00	82.00	-65.00	-42.00	-11.00	-35.00
	-10.00	283.00	150.00	-41.00	5.00	-8.00	-47.00
	-5.00	255.00	157.00	-32.00	23.00	-16.00	-35.00
	-4.00	280.00	178.00	9.00	-36.00	-54.00	-26.00
	-3.00	315.00	187.00	-98.00	10.00	-20.00	-5.00
	-5.00	266.00	269.00	-121.00	16.00	41.00	5.00
	-8.00	187.00	231.00	-89.00	51.00	85.00	13.00
	-8.00	19.00	130.00	-135.00	9.00	48.00	32.00
	3.00	-132.00	-52.00	-126.00	-22.00	7.00	26.00
	2.00	-232.00	-201.00	-165.00	-36.00	-11.00	13.00
	-3.00	-276.00	-157.00	-181.00	-33.00	22.00	12.00
	2.00	-289.00	-130.00	-175.00	40.00	40.00	16.00
	12.00	-261.00	-96.00	-110.00	87.00	18.00	-31.00
	12.00	-214.00	-33.00	-45.00	78.00	21.00	-33.00
	12.00	-86.00	77.00	89.00	55.00	-28.00	-30.00
	7.00	26.00	188.00	306.00	33.00	-80.00	-52.00
	1.00	95.00	236.00	314.00	29.00	-66.00	-64.00
	-14.00	131.00	233.00	204.00	23.00	-30.00	-72.00
	-14.00	95.00	144.00	94.00	89.00	104.00	-80.00
	5.00	48.00	8.00	9.00	74.00	149.00	-55.00
	5.00	1.00	8.00	-3.00	20.00	98.00	-25.00
	11.00	-54.00	77.00	-42.00	-44.00	39.00	36.00
	16.00	-74.00	44.00	16.00	-12.00	57.00	12.00
	18.00	-112.00	6.00	62.00	-39.00	-14.00	19.00
	22.00	-100.00	28.00	60.00	-39.00	-36.00	26.00
	19.00	-79.00	-23.00	116.00	-43.00	-101.00	6.00
	6.00	-16.00	-66.00	101.00	25.00	40.00	35.00
	-1.00	5.00	-123.00	62.00	4.00	70.00	55.00
	-1.00	28.00	-100.00	42.00	16.00	84.00	37.00
	-7.00	44.00	-77.00	11.00	-52.00	47.00	20.00
	-10.00	40.00	-104.00	-48.00	-70.00	-2.00	-33.00
	-14.00	37.00	-87.00	-83.00	-14.00	20.00	-78.00
	-15.00	70.00	-45.00	-86.00	-11.00	3.00	-87.00
	-15.00	142.00	-21.00	-93.00	-7.00	-16.00	-93.00
	-13.00	157.00	-52.00	-143.00	-1.00	-12.00	-93.00
	-8.00	190.00	-11.00	-181.00	-28.00	-36.00	-41.00
	-1.00	182.00	84.00	-187.00	-9.00	4.00	-21.00
	11.00	210.00	82.00	-156.00	15.00	-18.00	6.00
	16.00	267.00	-6.00	-81.00	18.00	-49.00	97.00
	16.00	253.00	-39.00	22.00	42.00	-78.00	154.00
	8.00	145.00	118.00	230.00	53.00	-32.00	158.00
	-5.00	23.00	261.00	294.00	80.00	104.00	166.00
	-20.00	-38.00	288.00	81.00	42.00	82.00	153.00
	-7.00	-44.00	270.00	51.00	-9.00	-39.00	145.00
	9.00	-98.00	79.00	81.00	-22.00	-56.00	148.00
	7.00	-143.00	-90.00	96.00	-146.00	-128.00	124.00
	0.00	-140.00	-51.00	96.00	-30.00	3.00	60.00
	4.00	-119.00	-98.00	105.00	39.00	87.00	-1.00
	-4.00	-9.00	-70.00	3.00	36.00	99.00	5.00
	-6.00	87.00	26.00	-48.00	76.00	81.00	-12.00
	-8.00	127.00	-16.00	-17.00	27.00	-28.00	-61.00
	-5.00	116.00	-207.00	-52.00	-10.00	-34.00	-112.00
	-15.00	43.00	-361.00	-4.00	-35.00	-42.00	-151.00
	-12.00	-69.00	-232.00	70.00	64.00	-19.00	-170.00
	2.00	-151.00	-134.00	58.00	124.00	102.00	-156.00
	12.00	-163.00	24.00	15.00	105.00	115.00	-126.00
	8.00	-156.00	8.00	-31.00	71.00	50.00	-78.00
	6.00	-132.00	-27.00	-55.00	62.00	6.00	-27.00
	5.00	-63.00	-25.00	-34.00	-16.00	-27.00	52.00
	13.00	64.00	5.00	2.00	-58.00	-53.00	95.00
	15.00	182.00	25.00	9.00	-36.00	-43.00	74.00
	7.00	150.00	50.00	21.00	-88.00	45.00	68.00
	8.00	72.00	75.00	-25.00	-77.00	44.00	78.00
	2.00	-17.00	80.00	-90.00	-26.00	19.00	54.00
	-9.00	-101.00	65.00	-60.00	6.00	-29.00	24.00
	13.00	-147.00	-38.00	-76.00	57.00	-114.00	18.00
	22.00	-190.00	-7.00	-17.00	24.00	-74.00	36.00
	14.00	-168.00	52.00	60.00	4.00	106.00	44.00
	24.00	-115.00	71.00	148.00	24.00	88.00	14.00
	6.00	-40.00	73.00	164.00	67.00	40.00	2.00
	-10.00	-13.00	84.00	136.00	83.00	21.00	1.00
	-8.00	-1.00	76.00	56.00	135.00	-4.00	-5.00
	3.00	18.00	85.00	13.00	160.00	-49.00	-26.00
	1.00	42.00	68.00	31.00	201.00	-15.00	15.00
	-10.00	60.00	43.00	54.00	239.00	72.00	-22.00
	-6.00	68.00	37.00	21.00	210.00	105.00	-31.00
	-1.00	77.00	61.00	8.00	142.00	57.00	-58.00
	-2.00	88.00	40.00	-27.00	75.00	2.00	-46.00
	-5.00	72.00	-20.00	-108.00	19.00	0.00	-65.00
	5.00	52.00	6.00	-225.00	-8.00	10.00	-60.00
	9.00	44.00	152.00	-298.00	-67.00	-1.00	-46.00
	8.00	47.00	220.00	-180.00	-55.00	43.00	-67.00
	17.00	93.00	83.00	-68.00	-84.00	-41.00	-47.00
	22.00	109.00	-65.00	69.00	-119.00	-49.00	-12.00
	25.00	72.00	-284.00	205.00	-144.00	-44.00	32.00
	8.00	44.00	-162.00	233.00	-179.00	-39.00	68.00
	-10.00	29.00	-89.00	224.00	-89.00	91.00	59.00
	-31.00	26.00	-125.00	112.00	-36.00	104.00	46.00
	-21.00	75.00	-60.00	6.00	-77.00	33.00	43.00
	-14.00	114.00	73.00	-42.00	-63.00	12.00	20.00
	-22.00	182.00	75.00	-53.00	-50.00	-10.00	10.00
	-13.00	353.00	-7.00	-114.00	-42.00	-54.00	-2.00
	-1.00	388.00	-45.00	-114.00	-1.00	-21.00	-32.00
	2.00	290.00	-122.00	-41.00	4.00	-53.00	-61.00
	2.00	122.00	-170.00	-36.00	-11.00	-111.00	-78.00
	0.00	-33.00	-168.00	-50.00	17.00	7.00	-87.00
	6.00	-158.00	-108.00	-103.00	24.00	135.00	-114.00
	-4.00	-227.00	-5.00	-79.00	28.00	107.00	-84.00
	-14.00	-250.00	124.00	-2.00	6.00	53.00	-29.00
	-6.00	-235.00	182.00	63.00	5.00	19.00	-13.00
	1.00	-237.00	200.00	147.00	20.00	-16.00	8.00
	8.00	-177.00	136.00	152.00	37.00	-11.00	10.00
	8.00	-116.00	-72.00	122.00	37.00	-15.00	56.00
	-12.00	-81.00	-151.00	2.00	41.00	-3.00	74.00
	-16.00	-24.00	-139.00	-74.00	-68.00	-45.00	108.00
	-13.00	11.00	-110.00	18.00	-22.00	-8.00	114.00
	-9.00	37.00	-64.00	104.00	-45.00	-13.00	119.00
	3.00	75.00	18.00	81.00	-93.00	-33.00	116.00
	19.00	79.00	163.00	64.00	-70.00	-8.00	56.00
	18.00	104.00	222.00	59.00	-4.00	10.00	28.00
	-4.00	122.00	273.00	43.00	-4.00	-49.00	-12.00
	3.00	108.00	254.00	-28.00	34.00	-56.00	2.00
	-3.00	90.00	62.00	-62.00	113.00	32.00	7.00
	-6.00	32.00	-107.00	-43.00	105.00	39.00	9.00
	-3.00	-37.00	-204.00	-56.00	116.00	64.00	-12.00
	-12.00	-71.00	-278.00	-86.00	72.00	-32.00	-18.00
	-28.00	-28.00	-148.00	-25.00	110.00	59.00	-15.00
	-19.00	-35.00	-61.00	75.00	84.00	98.00	-10.00
	-16.00	-56.00	-122.00	107.00	21.00	4.00	14.00
	-12.00	-8.00	-215.00	48.00	0.00	-4.00	29.00
	-4.00	51.00	-61.00	30.00	44.00	51.00	30.00
	6.00	61.00	49.00	-27.00	25.00	23.00	31.00
	7.00	34.00	54.00	-81.00	-15.00	10.00	14.00
	1.00	46.00	35.00	-79.00	66.00	75.00	-15.00
	-3.00	173.00	32.00	-25.00	50.00	69.00	-29.00
	-3.00	273.00	14.00	-13.00	-14.00	20.00	-49.00
	0.00	263.00	-14.00	-35.00	-36.00	-9.00	-46.00
	0.00	161.00	-14.00	-67.00	-14.00	-12.00	-30.00
	-8.00	56.00	38.00	-54.00	29.00	47.00	-2.00
	-2.00	-37.00	100.00	-12.00	109.00	125.00	8.00
	5.00	-120.00	85.00	4.00	52.00	66.00	24.00
	8.00	-170.00	-11.00	-57.00	-23.00	-32.00	25.00
	10.00	-226.00	10.00	-47.00	-30.00	-38.00	18.00
	11.00	-256.00	75.00	-45.00	-1.00	-15.00	18.00
	22.00	-208.00	105.00	-17.00	-4.00	-45.00	13.00
	32.00	-142.00	103.00	-29.00	-66.00	-27.00	-42.00
	30.00	-76.00	84.00	26.00	-95.00	-34.00	-52.00
	22.00	-25.00	18.00	176.00	-80.00	-42.00	-57.00
	16.00	60.00	24.00	253.00	-53.00	-57.00	-56.00
	2.00	152.00	18.00	141.00	-49.00	-77.00	-12.00
	-2.00	191.00	-25.00	59.00	6.00	-70.00	-2.00
	8.00	213.00	-38.00	31.00	29.00	-33.00	-25.00
	6.00	173.00	3.00	8.00	59.00	-13.00	-10.00
	11.00	82.00	-1.00	-23.00	51.00	-74.00	3.00
	4.00	-26.00	24.00	1.00	47.00	30.00	7.00
	0.00	-112.00	36.00	-23.00	28.00	31.00	21.00
	0.00	-171.00	37.00	-36.00	36.00	81.00	45.00
	10.00	-113.00	-38.00	-9.00	11.00	51.00	64.00
	14.00	-47.00	-62.00	12.00	-27.00	7.00	38.00
	11.00	-49.00	-28.00	6.00	0.00	88.00	41.00
	3.00	-71.00	12.00	37.00	-18.00	89.00	29.00
	5.00	-68.00	17.00	35.00	30.00	43.00	26.00
	20.00	-84.00	39.00	43.00	22.00	18.00	31.00
	23.00	-62.00	65.00	-17.00	67.00	23.00	20.00
	18.00	-7.00	174.00	-58.00	108.00	34.00	-21.00
	21.00	65.00	284.00	8.00	103.00	79.00	10.00
	5.00	108.00	233.00	92.00	38.00	1.00	38.00
	-19.00	191.00	128.00	138.00	-7.00	-120.00	13.00
	-31.00	269.00	9.00	79.00	-19.00	-52.00	1.00
	-46.00	258.00	-8.00	-23.00	-1.00	37.00	-25.00
	-75.00	230.00	38.00	-233.00	-54.00	26.00	10.00
	-78.00	175.00	-28.00	-293.00	-29.00	35.00	34.00
	-61.00	119.00	-99.00	-168.00	-42.00	40.00	31.00
	-31.00	40.00	34.00	124.00	-214.00	39.00	1.00
	-30.00	-30.00	175.00	400.00	-173.00	29.00	-10.00
	-46.00	-91.00	126.00	449.00	-85.00	9.00	-19.00
	-62.00	-133.00	71.00	273.00	-1.00	-9.00	-20.00
	-70.00	-106.00	-78.00	101.00	92.00	-24.00	-20.00
	-82.00	-30.00	-227.00	18.00	181.00	-33.00	-18.00
	-93.00	15.00	-398.00	-84.00	219.00	-38.00	-8.00
	-119.00	25.00	-513.00	-124.00	224.00	-38.00	-18.00
	-121.00	4.00	-387.00	-113.00	215.00	-16.00	-36.00
	-123.00	-23.00	-222.00	-86.00	211.00	13.00	-45.00
	-99.00	-17.00	-40.00	-174.00	182.00	10.00	-42.00
	-71.00	19.00	65.00	-207.00	117.00	0.00	-47.00
	-50.00	97.00	67.00	-255.00	42.00	-91.00	-31.00
	-31.00	166.00	68.00	-255.00	-16.00	-132.00	-12.00
	-21.00	161.00	62.00	-90.00	-66.00	-183.00	-71.00
	-7.00	109.00	-56.00	25.00	-47.00	-119.00	-98.00
	-17.00	17.00	-175.00	160.00	56.00	47.00	-53.00
	-23.00	-79.00	-120.00	249.00	66.00	191.00	-11.00
	-6.00	-99.00	-30.00	231.00	37.00	169.00	-7.00
	25.00	-111.00	-154.00	98.00	-8.00	62.00	38.00
	47.00	-188.00	-140.00	39.00	-31.00	18.00	45.00
	66.00	-246.00	-59.00	-21.00	-60.00	-22.00	57.00
	82.00	-269.00	49.00	-32.00	-43.00	26.00	46.00
	91.00	-267.00	145.00	-10.00	-44.00	26.00	41.00
	98.00	-241.00	181.00	-30.00	-73.00	56.00	55.00
	120.00	-198.00	269.00	-46.00	-66.00	97.00	43.00
	131.00	-153.00	235.00	-77.00	-75.00	44.00	5.00
	137.00	-109.00	90.00	-70.00	-110.00	-2.00	17.00
	111.00	-47.00	48.00	-64.00	-180.00	-11.00	-2.00
	107.00	18.00	-106.00	-98.00	-128.00	-3.00	-32.00
	103.00	43.00	-105.00	15.00	-123.00	-27.00	-40.00
	94.00	67.00	-16.00	73.00	-44.00	-27.00	-47.00
	96.00	99.00	-55.00	19.00	62.00	-13.00	-52.00
	91.00	135.00	-53.00	-28.00	1.00	-71.00	-38.00
	75.00	128.00	19.00	-34.00	33.00	-19.00	-25.00
	78.00	145.00	15.00	-50.00	96.00	32.00	-14.00
	65.00	182.00	41.00	-29.00	94.00	80.00	-57.00
	63.00	163.00	13.00	1.00	68.00	-26.00	-51.00
	48.00	174.00	19.00	72.00	115.00	60.00	-54.00
	10.00	236.00	29.00	64.00	103.00	85.00	-35.00
	19.00	239.00	46.00	20.00	71.00	63.00	-10.00
	19.00	201.00	55.00	-43.00	32.00	35.00	11.00
	19.00	122.00	98.00	-89.00	-11.00	61.00	37.00
	23.00	37.00	123.00	-60.00	-10.00	58.00	58.00
	30.00	9.00	42.00	2.00	-44.00	-44.00	110.00
	21.00	-25.00	49.00	134.00	17.00	-33.00	122.00
	2.00	-44.00	62.00	208.00	58.00	30.00	78.00
	-14.00	4.00	40.00	187.00	-2.00	-62.00	34.00
	-15.00	67.00	51.00	153.00	0.00	-45.00	6.00
	-20.00	69.00	44.00	47.00	-5.00	-50.00	9.00
	-26.00	54.00	0.00	-105.00	-26.00	-55.00	24.00
	-32.00	49.00	-7.00	-134.00	28.00	77.00	2.00
	-39.00	30.00	-1.00	-123.00	74.00	135.00	-61.00
	-43.00	12.00	22.00	-48.00	44.00	112.00	-48.00
	-44.00	7.00	24.00	-18.00	-22.00	23.00	-22.00
	-38.00	11.00	57.00	-23.00	-3.00	15.00	-11.00
	-48.00	5.00	44.00	45.00	-23.00	-34.00	-39.00
	-46.00	22.00	18.00	24.00	-29.00	-41.00	-44.00
	-46.00	44.00	-54.00	35.00	-8.00	-48.00	-21.00
	-39.00	47.00	-39.00	146.00	-56.00	-94.00	16.00
	-42.00	50.00	91.00	49.00	-31.00	45.00	42.00
	-35.00	98.00	169.00	-40.00	-3.00	68.00	45.00
	-24.00	181.00	103.00	-108.00	43.00	42.00	46.00
	-33.00	228.00	99.00	-35.00	102.00	73.00	39.00
	-30.00	131.00	-23.00	168.00	79.00	-4.00	39.00
	-24.00	32.00	-149.00	244.00	39.00	-92.00	27.00
	-15.00	-6.00	-167.00	159.00	18.00	-141.00	1.00
	-23.00	-68.00	-105.00	140.00	40.00	-58.00	-33.00
	-21.00	-102.00	-53.00	170.00	71.00	101.00	-30.00
	-22.00	-139.00	-78.00	114.00	75.00	106.00	-61.00
	-26.00	-186.00	-109.00	-5.00	-12.00	8.00	-91.00
	-18.00	-190.00	-71.00	-41.00	-37.00	6.00	-86.00
	-16.00	-163.00	-32.00	-50.00	2.00	5.00	-70.00
	-16.00	-141.00	-49.00	-83.00	4.00	19.00	-43.00
	-19.00	-68.00	-33.00	-100.00	21.00	63.00	-20.00
	-12.00	77.00	26.00	-52.00	-13.00	33.00	-3.00
	-8.00	207.00	160.00	6.00	-54.00	50.00	6.00
	-13.00	292.00	176.00	-14.00	-47.00	37.00	18.00
	-11.00	349.00	177.00	-44.00	-22.00	3.00	6.00
	-13.00	411.00	58.00	-44.00	-69.00	19.00	54.00
	-11.00	388.00	-112.00	-45.00	-136.00	24.00	102.00
	-10.00	217.00	-87.00	-55.00	-133.00	-1.00	98.00
	-8.00	-3.00	-166.00	-40.00	-139.00	-75.00	79.00
	-12.00	-184.00	-132.00	4.00	-84.00	-4.00	40.00
	-13.00	-336.00	-9.00	-27.00	17.00	-22.00	24.00
	3.00	-402.00	24.00	-102.00	70.00	-113.00	-23.00
	3.00	-435.00	85.00	27.00	136.00	3.00	-45.00
	-3.00	-471.00	79.00	115.00	249.00	135.00	-14.00
	8.00	-442.00	-11.00	22.00	219.00	61.00	9.00
	12.00	-343.00	55.00	57.00	149.00	51.00	26.00
	-6.00	-221.00	74.00	73.00	122.00	52.00	46.00
	-15.00	7.00	-69.00	-8.00	115.00	34.00	27.00
	-2.00	243.00	-277.00	-55.00	85.00	2.00	-22.00
	0.00	259.00	-112.00	-9.00	55.00	21.00	-24.00
	5.00	197.00	63.00	-13.00	-35.00	57.00	-27.00
	6.00	121.00	118.00	-79.00	-151.00	42.00	-68.00
	-4.00	45.00	137.00	-103.00	-244.00	19.00	-90.00
	-10.00	-2.00	47.00	-110.00	-195.00	-8.00	-84.00
	-7.00	-47.00	-13.00	-90.00	-66.00	-11.00	-51.00
	2.00	-85.00	-44.00	-21.00	25.00	-33.00	-28.00
	4.00	-137.00	-88.00	-21.00	102.00	-65.00	-7.00
	-6.00	-152.00	-84.00	40.00	97.00	-56.00	49.00
	-7.00	-112.00	-48.00	52.00	90.00	-67.00	116.00
	1.00	-80.00	31.00	85.00	113.00	0.00	127.00
	4.00	-15.00	100.00	75.00	149.00	56.00	98.00
	4.00	54.00	113.00	-60.00	143.00	26.00	74.00
	5.00	136.00	148.00	-111.00	109.00	47.00	37.00
	11.00	238.00	130.00	-96.00	67.00	27.00	11.00
	7.00	285.00	-22.00	-47.00	17.00	-30.00	-40.00
	13.00	258.00	-206.00	44.00	22.00	-13.00	-75.00
	20.00	197.00	-208.00	70.00	29.00	-38.00	-30.00
	10.00	162.00	-174.00	12.00	1.00	-41.00	50.00
	-2.00	114.00	-98.00	144.00	21.00	-28.00	17.00
	-5.00	122.00	-49.00	178.00	-14.00	-40.00	13.00
	-11.00	83.00	-24.00	137.00	2.00	13.00	49.00
	-7.00	23.00	1.00	128.00	-19.00	41.00	44.00
	1.00	-11.00	27.00	166.00	-47.00	55.00	92.00
	0.00	-27.00	39.00	147.00	-17.00	65.00	81.00
	-4.00	-39.00	46.00	96.00	-37.00	75.00	67.00
	-2.00	-80.00	65.00	43.00	-39.00	101.00	53.00
	4.00	-88.00	77.00	3.00	-36.00	42.00	6.00
	5.00	-66.00	83.00	-39.00	-37.00	-6.00	-43.00
	4.00	-41.00	92.00	-54.00	-50.00	-34.00	-59.00
	8.00	-16.00	61.00	-97.00	-31.00	-14.00	-71.00
	7.00	-1.00	100.00	-122.00	-77.00	22.00	-84.00
	-2.00	28.00	97.00	-192.00	-108.00	14.00	-109.00
	7.00	57.00	61.00	-190.00	-79.00	19.00	-104.00
	17.00	131.00	-9.00	-163.00	-44.00	10.00	-62.00
	5.00	225.00	-4.00	-44.00	-5.00	-48.00	-83.00
	9.00	281.00	51.00	126.00	51.00	-70.00	-67.00
	8.00	245.00	134.00	185.00	39.00	-90.00	-28.00
	13.00	196.00	118.00	102.00	15.00	-136.00	-6.00
	12.00	107.00	39.00	66.00	12.00	-116.00	-9.00
	-8.00	12.00	6.00	38.00	147.00	158.00	-18.00
	-12.00	-88.00	-95.00	81.00	150.00	196.00	-7.00
	-24.00	-186.00	-86.00	107.00	85.00	155.00	17.00
	-19.00	-205.00	-96.00	4.00	49.00	42.00	18.00
	-5.00	-201.00	-111.00	6.00	44.00	37.00	5.00
	5.00	-189.00	-134.00	23.00	-10.00	23.00	-2.00
	-6.00	-159.00	-72.00	30.00	-26.00	11.00	-43.00
	-14.00	-113.00	-16.00	5.00	-38.00	-17.00	-12.00
	-13.00	-84.00	15.00	-16.00	-64.00	6.00	5.00
	-6.00	-52.00	67.00	-39.00	-49.00	32.00	4.00
	-2.00	-16.00	115.00	-30.00	-49.00	13.00	47.00
	4.00	132.00	108.00	-10.00	-42.00	-49.00	90.00
	12.00	278.00	55.00	-30.00	-9.00	-47.00	61.00
	-1.00	333.00	18.00	-47.00	15.00	79.00	58.00
	8.00	299.00	-10.00	-147.00	18.00	70.00	62.00
	9.00	192.00	-38.00	-182.00	-36.00	-38.00	60.00
	-2.00	75.00	-21.00	-95.00	-40.00	-71.00	37.00
	-14.00	-40.00	31.00	-24.00	-41.00	-30.00	21.00
	-12.00	-96.00	17.00	39.00	3.00	96.00	15.00
	1.00	-134.00	-26.00	127.00	76.00	65.00	-11.00
	-8.00	-132.00	-42.00	142.00	81.00	-24.00	-50.00
	-5.00	-141.00	-27.00	166.00	94.00	-49.00	-66.00
	-6.00	-160.00	-42.00	124.00	116.00	-35.00	-56.00
	-8.00	-145.00	-35.00	41.00	22.00	14.00	-18.00
	-5.00	-123.00	-3.00	18.00	47.00	53.00	-31.00
	-3.00	-100.00	-23.00	-12.00	62.00	-4.00	-19.00
	0.00	-32.00	-90.00	-40.00	15.00	-49.00	-2.00
	-1.00	36.00	-100.00	-37.00	75.00	-3.00	4.00
	-10.00	64.00	44.00	-20.00	54.00	40.00	-4.00
	-5.00	114.00	108.00	-28.00	2.00	26.00	-9.00
	-4.00	157.00	196.00	-37.00	-6.00	49.00	29.00
	-9.00	188.00	202.00	-55.00	-16.00	26.00	29.00
	-12.00	343.00	50.00	-124.00	-24.00	16.00	4.00
	-10.00	378.00	-28.00	-184.00	-32.00	-3.00	-28.00
	-33.00	252.00	-189.00	-141.00	-35.00	6.00	-5.00
	-39.00	73.00	-289.00	-154.00	-135.00	-7.00	28.00
	-19.00	-49.00	-220.00	-75.00	-121.00	-71.00	32.00
	2.00	-152.00	-74.00	101.00	-115.00	-112.00	27.00
	12.00	-218.00	13.00	256.00	-63.00	80.00	2.00
	5.00	-241.00	20.00	264.00	41.00	39.00	2.00
	8.00	-214.00	-15.00	171.00	93.00	-20.00	-42.00
	3.00	-134.00	-41.00	81.00	106.00	0.00	-50.00
	10.00	-90.00	14.00	56.00	142.00	35.00	-7.00
	12.00	-55.00	135.00	-23.00	174.00	51.00	11.00
	6.00	-28.00	168.00	-136.00	181.00	31.00	43.00
	13.00	-3.00	122.00	-123.00	114.00	41.00	72.00
	18.00	45.00	46.00	-83.00	78.00	25.00	61.00
	16.00	61.00	-59.00	-55.00	57.00	6.00	73.00
	15.00	59.00	38.00	84.00	46.00	3.00	63.00
	20.00	68.00	63.00	137.00	12.00	-68.00	55.00
	16.00	94.00	96.00	106.00	-8.00	-109.00	27.00
	16.00	120.00	139.00	154.00	21.00	-53.00	23.00
	10.00	140.00	191.00	176.00	-11.00	-26.00	-1.00
	11.00	94.00	197.00	10.00	-43.00	-10.00	5.00
	24.00	18.00	123.00	-37.00	46.00	54.00	-14.00
	19.00	-58.00	-7.00	-21.00	81.00	133.00	-9.00
	7.00	-79.00	-226.00	-18.00	24.00	61.00	-23.00
	-6.00	-65.00	-340.00	50.00	-69.00	41.00	-54.00
	-15.00	-82.00	-158.00	56.00	-99.00	84.00	-43.00
	-13.00	-84.00	-43.00	19.00	-113.00	40.00	-59.00
	0.00	-61.00	-22.00	41.00	-90.00	5.00	-47.00
	0.00	-65.00	-66.00	47.00	-72.00	20.00	-30.00
	-5.00	-57.00	10.00	43.00	-28.00	78.00	-63.00
	-2.00	-10.00	59.00	13.00	-37.00	46.00	-78.00
	-7.00	51.00	84.00	-18.00	0.00	71.00	-55.00
	-11.00	152.00	94.00	-34.00	23.00	38.00	-43.00
	-13.00	144.00	53.00	-95.00	19.00	-15.00	-27.00
	-7.00	145.00	40.00	-104.00	-86.00	-68.00	-5.00
	-3.00	138.00	29.00	-80.00	-88.00	-88.00	-11.00
	-6.00	141.00	5.00	-78.00	-102.00	-41.00	-4.00
	-7.00	132.00	-52.00	-46.00	-9.00	-5.00	28.00
	-7.00	76.00	-103.00	-13.00	8.00	13.00	60.00
	-11.00	4.00	-74.00	42.00	-22.00	36.00	70.00
	-11.00	-50.00	-122.00	-45.00	-15.00	-10.00	64.00
	-16.00	-105.00	-142.00	-68.00	1.00	-87.00	49.00
	-29.00	-157.00	-181.00	-45.00	22.00	-132.00	27.00
	-41.00	-156.00	-139.00	25.00	111.00	-74.00	9.00
	-26.00	-142.00	-62.00	35.00	153.00	42.00	-10.00
	-17.00	-116.00	16.00	7.00	196.00	181.00	-4.00
	-20.00	-56.00	37.00	2.00	156.00	96.00	-14.00
	-13.00	14.00	62.00	-4.00	70.00	56.00	-5.00
	-15.00	45.00	49.00	-4.00	59.00	35.00	-16.00
	3.00	61.00	91.00	-13.00	60.00	29.00	-15.00
	15.00	162.00	75.00	-13.00	44.00	16.00	4.00
	18.00	376.00	48.00	29.00	24.00	13.00	20.00
	13.00	493.00	100.00	47.00	13.00	58.00	25.00
	20.00	456.00	115.00	6.00	-15.00	43.00	13.00
	25.00	332.00	78.00	3.00	-12.00	4.00	18.00
	22.00	170.00	99.00	24.00	18.00	12.00	8.00
	9.00	16.00	157.00	75.00	15.00	-20.00	-9.00
	26.00	-127.00	92.00	122.00	28.00	-55.00	-30.00
	25.00	-264.00	73.00	160.00	-2.00	-59.00	-28.00
	15.00	-345.00	7.00	107.00	-15.00	-25.00	-8.00
	20.00	-347.00	-46.00	16.00	-16.00	18.00	20.00
	20.00	-329.00	-6.00	18.00	-28.00	20.00	61.00
	5.00	-301.00	-35.00	-21.00	-23.00	33.00	34.00
	-1.00	-282.00	-92.00	-13.00	-32.00	6.00	-4.00
	1.00	-218.00	-266.00	-7.00	-43.00	-41.00	-42.00
	-11.00	-127.00	-160.00	47.00	-19.00	-25.00	-48.00
	-13.00	-72.00	-62.00	1.00	17.00	13.00	-74.00
	-3.00	-20.00	-18.00	15.00	40.00	2.00	-78.00
	0.00	35.00	21.00	2.00	28.00	21.00	-34.00
	-2.00	142.00	18.00	-62.00	-7.00	-4.00	-6.00
	-2.00	224.00	17.00	-61.00	-32.00	-17.00	2.00
	-1.00	314.00	54.00	-28.00	-52.00	10.00	26.00
	-3.00	369.00	76.00	-51.00	-35.00	4.00	24.00
	-3.00	303.00	75.00	-38.00	-38.00	-26.00	79.00
	-3.00	193.00	21.00	18.00	-8.00	-33.00	93.00
	-7.00	51.00	-20.00	37.00	2.00	-35.00	124.00
	-2.00	-67.00	16.00	32.00	41.00	6.00	123.00
	5.00	-119.00	49.00	28.00	59.00	41.00	92.00
	5.00	-100.00	92.00	-25.00	57.00	22.00	54.00
	2.00	-71.00	118.00	-131.00	60.00	27.00	-11.00
	11.00	-15.00	132.00	-125.00	103.00	60.00	-54.00
	23.00	-31.00	53.00	-134.00	74.00	1.00	-77.00
	10.00	-12.00	-95.00	-103.00	64.00	71.00	-92.00
	12.00	65.00	-108.00	-23.00	-3.00	70.00	-85.00
	21.00	95.00	-86.00	57.00	-57.00	37.00	-60.00
	7.00	193.00	-53.00	161.00	-53.00	5.00	-25.00
	-2.00	254.00	-33.00	130.00	-26.00	-29.00	13.00
	-14.00	178.00	29.00	80.00	-21.00	13.00	28.00
	-12.00	74.00	92.00	65.00	15.00	57.00	22.00
	-1.00	-35.00	80.00	34.00	77.00	53.00	-5.00
	5.00	-157.00	69.00	73.00	82.00	36.00	-39.00
	-1.00	-199.00	-1.00	109.00	49.00	-51.00	-21.00
	-4.00	-200.00	-39.00	106.00	36.00	-73.00	-5.00
	-10.00	-195.00	21.00	33.00	-7.00	-88.00	-5.00
	-5.00	-178.00	39.00	25.00	-69.00	-110.00	22.00
	-2.00	-131.00	35.00	52.00	12.00	159.00	41.00
	-17.00	-65.00	18.00	24.00	71.00	175.00	29.00
	-21.00	-41.00	-3.00	29.00	-5.00	3.00	64.00
	-16.00	-6.00	18.00	15.00	-46.00	-54.00	64.00
	-13.00	21.00	11.00	-25.00	-15.00	-55.00	51.00
	-15.00	25.00	-31.00	-63.00	15.00	34.00	30.00
	-26.00	25.00	-181.00	-31.00	35.00	74.00	10.00
	-25.00	38.00	-141.00	-22.00	71.00	34.00	-9.00
	-18.00	68.00	25.00	-80.00	54.00	8.00	-32.00
	2.00	145.00	32.00	-72.00	5.00	-53.00	-57.00
	9.00	237.00	35.00	-3.00	-60.00	-98.00	-76.00
	12.00	366.00	40.00	94.00	-98.00	-56.00	-66.00
	12.00	359.00	78.00	84.00	-13.00	-5.00	-56.00
	13.00	267.00	45.00	-9.00	-40.00	-100.00	-37.00
	10.00	138.00	52.00	-21.00	20.00	-9.00	-38.00
	4.00	21.00	-36.00	-47.00	47.00	86.00	-10.00
	1.00	-102.00	-131.00	26.00	9.00	134.00	-34.00
	-5.00	-185.00	-243.00	33.00	19.00	124.00	-41.00
	-16.00	-241.00	-217.00	6.00	-87.00	117.00	-31.00
	-5.00	-217.00	-103.00	-8.00	-116.00	22.00	-7.00
	8.00	-123.00	-3.00	-32.00	-31.00	6.00	5.00
	8.00	-48.00	39.00	-29.00	62.00	-1.00	16.00
	1.00	-38.00	9.00	-30.00	96.00	-13.00	23.00
	-2.00	-26.00	-12.00	-70.00	108.00	-39.00	32.00
	7.00	-18.00	-62.00	-65.00	72.00	-82.00	17.00
	13.00	-10.00	-41.00	-82.00	67.00	-58.00	-12.00
	8.00	-20.00	-25.00	-51.00	72.00	-9.00	16.00
	-1.00	-1.00	-8.00	-52.00	76.00	114.00	59.00
	-7.00	32.00	84.00	-49.00	59.00	55.00	52.00
	7.00	103.00	74.00	-4.00	26.00	-10.00	26.00
	1.00	193.00	156.00	96.00	0.00	-36.00	31.00
	5.00	206.00	263.00	30.00	-36.00	-43.00	51.00
	15.00	159.00	205.00	11.00	-25.00	24.00	67.00
	2.00	113.00	72.00	63.00	81.00	99.00	2.00
	-7.00	58.00	-33.00	134.00	72.00	8.00	26.00
	-10.00	9.00	-224.00	106.00	114.00	41.00	-5.00
	-17.00	47.00	-206.00	-16.00	109.00	1.00	-52.00
	-13.00	41.00	-91.00	-61.00	-8.00	-27.00	-6.00
	-6.00	8.00	-47.00	-94.00	-16.00	10.00	-2.00
	-8.00	-41.00	-9.00	-53.00	-4.00	46.00	-26.00
	-12.00	-88.00	19.00	7.00	-95.00	-9.00	-43.00
	-15.00	-71.00	55.00	84.00	-99.00	-1.00	-89.00
	1.00	-92.00	70.00	167.00	-45.00	59.00	-71.00
	8.00	-153.00	68.00	173.00	-14.00	-15.00	-57.00
	0.00	-150.00	86.00	149.00	38.00	-8.00	-67.00
	-1.00	-125.00	45.00	78.00	65.00	12.00	-22.00
	-1.00	-112.00	-6.00	87.00	45.00	-32.00	-2.00
	-2.00	-10.00	-11.00	65.00	76.00	6.00	39.00
	-1.00	90.00	23.00	-34.00	88.00	66.00	84.00
	-2.00	147.00	13.00	-87.00	84.00	26.00	50.00
	-3.00	161.00	38.00	11.00	33.00	-16.00	22.00
	-8.00	156.00	40.00	42.00	2.00	-26.00	-9.00
	-16.00	113.00	2.00	6.00	7.00	0.00	-24.00
	-8.00	65.00	-22.00	-26.00	-31.00	-53.00	-43.00
	-11.00	135.00	4.00	-15.00	-17.00	3.00	-29.00
	-5.00	128.00	28.00	-12.00	24.00	116.00	7.00
	-2.00	53.00	44.00	-17.00	2.00	74.00	25.00
	1.00	-31.00	78.00	-27.00	-53.00	10.00	46.00
	6.00	-80.00	146.00	-140.00	-58.00	-1.00	63.00
	3.00	-27.00	195.00	-196.00	-52.00	-17.00	58.00
	7.00	-37.00	158.00	-145.00	-30.00	0.00	45.00
	6.00	-54.00	22.00	-83.00	-30.00	-25.00	25.00
	11.00	-88.00	-123.00	-8.00	-80.00	-71.00	-15.00
	3.00	-162.00	-231.00	70.00	-74.00	-26.00	-42.00
	-14.00	-209.00	-179.00	98.00	-65.00	4.00	-58.00
	-15.00	-209.00	-99.00	45.00	-30.00	10.00	-63.00
	-23.00	-201.00	-49.00	-11.00	33.00	86.00	-56.00
	-11.00	-175.00	-13.00	9.00	28.00	41.00	13.00
	-5.00	-105.00	6.00	46.00	13.00	8.00	52.00
	-1.00	-57.00	9.00	74.00	-9.00	19.00	44.00
	2.00	-18.00	6.00	81.00	-42.00	11.00	63.00
	-9.00	26.00	22.00	90.00	-92.00	21.00	37.00
	-5.00	83.00	33.00	16.00	-109.00	-30.00	33.00
	5.00	126.00	48.00	-72.00	-58.00	-47.00	88.00
	13.00	146.00	60.00	-66.00	11.00	-29.00	65.00
	11.00	158.00	49.00	-55.00	1.00	-23.00	9.00
	15.00	167.00	54.00	-73.00	85.00	60.00	-38.00
	28.00	172.00	47.00	-54.00	171.00	38.00	-50.00
	23.00	192.00	80.00	26.00	190.00	49.00	-79.00
	15.00	239.00	115.00	98.00	111.00	14.00	-119.00
	7.00	246.00	88.00	96.00	79.00	-55.00	-83.00
	13.00	216.00	4.00	142.00	38.00	-74.00	-43.00
	22.00	178.00	-71.00	80.00	30.00	-37.00	-14.00
	17.00	220.00	-147.00	50.00	9.00	-48.00	32.00
	0.00	186.00	-224.00	-41.00	45.00	-47.00	52.00
	-19.00	70.00	-150.00	-56.00	194.00	124.00	6.00
	-31.00	-45.00	-73.00	-24.00	149.00	93.00	1.00
	-33.00	-99.00	-41.00	5.00	130.00	22.00	25.00
	-22.00	-126.00	-5.00	6.00	122.00	26.00	9.00
	-16.00	-138.00	24.00	-12.00	81.00	40.00	-47.00
	-6.00	-141.00	62.00	-29.00	59.00	38.00	-52.00
	-2.00	-99.00	83.00	-49.00	-19.00	-60.00	-52.00
	-2.00	-21.00	78.00	-93.00	-10.00	0.00	-22.00
	10.00	128.00	11.00	-142.00	32.00	40.00	-8.00
	14.00	208.00	-14.00	-177.00	20.00	63.00	11.00
	7.00	167.00	-38.00	-116.00	-59.00	38.00	34.00
	3.00	76.00	-68.00	21.00	-99.00	-6.00	46.00
	-13.00	-42.00	-72.00	131.00	-75.00	29.00	70.00
	-11.00	-124.00	-11.00	151.00	-89.00	10.00	75.00
	-6.00	-141.00	67.00	212.00	-46.00	-20.00	68.00
	-3.00	-159.00	119.00	251.00	4.00	99.00	85.00
	-4.00	-174.00	49.00	75.00	-39.00	59.00	92.00
	3.00	-116.00	-32.00	-12.00	-69.00	13.00	39.00
	9.00	-34.00	-57.00	-88.00	-85.00	-29.00	2.00
	-1.00	-6.00	9.00	-132.00	-102.00	-13.00	9.00
	-4.00	-22.00	22.00	-77.00	-172.00	-57.00	-22.00
	-6.00	-36.00	17.00	-7.00	-138.00	-44.00	-34.00
	5.00	-34.00	-14.00	-6.00	-38.00	23.00	-48.00
	15.00	10.00	-25.00	185.00	32.00	47.00	-66.00
	21.00	44.00	201.00	224.00	28.00	43.00	-45.00
	14.00	51.00	274.00	62.00	51.00	-11.00	-24.00
	13.00	30.00	189.00	22.00	110.00	-56.00	-35.00
	4.00	16.00	-44.00	-7.00	123.00	-120.00	22.00
	1.00	28.00	-392.00	-10.00	138.00	-91.00	24.00
	-14.00	43.00	-293.00	63.00	185.00	147.00	26.00
	-18.00	39.00	-129.00	94.00	166.00	144.00	21.00
	-16.00	-5.00	-66.00	19.00	77.00	62.00	29.00
	-4.00	-45.00	-57.00	-29.00	59.00	78.00	9.00
	0.00	-52.00	-35.00	-47.00	22.00	43.00	-14.00
	5.00	-24.00	-4.00	-51.00	0.00	25.00	-6.00
	7.00	7.00	19.00	-65.00	-26.00	24.00	-10.00
	9.00	47.00	32.00	-86.00	-10.00	5.00	-29.00
	9.00	66.00	79.00	-42.00	-1.00	10.00	-29.00
	5.00	78.00	109.00	-56.00	5.00	30.00	-32.00
	-1.00	96.00	111.00	-16.00	5.00	0.00	-32.00
	1.00	102.00	68.00	20.00	-45.00	-49.00	-39.00
	9.00	91.00	36.00	78.00	-72.00	-48.00	-54.00
	16.00	122.00	32.00	97.00	-49.00	-13.00	-43.00
	12.00	156.00	-30.00	46.00	-49.00	-17.00	-40.00
	17.00	105.00	-44.00	51.00	-33.00	-30.00	-42.00
	22.00	25.00	-44.00	18.00	-6.00	-46.00	-37.00
	10.00	-41.00	-30.00	12.00	-39.00	-61.00	-47.00
	7.00	-99.00	-21.00	5.00	-32.00	-26.00	-11.00
	9.00	-170.00	48.00	-102.00	-9.00	18.00	35.00
	5.00	-193.00	69.00	-179.00	47.00	43.00	51.00
	-1.00	-166.00	62.00	-157.00	50.00	51.00	58.00
	-12.00	-124.00	73.00	-122.00	85.00	70.00	13.00
	-14.00	-74.00	56.00	2.00	84.00	40.00	-8.00
	-24.00	-39.00	20.00	182.00	24.00	-24.00	-24.00
	-30.00	9.00	-14.00	249.00	-11.00	-19.00	-19.00
	-23.00	90.00	-7.00	246.00	-27.00	1.00	15.00
	-17.00	176.00	-17.00	129.00	-37.00	1.00	20.00
	-26.00	244.00	-23.00	28.00	-36.00	-17.00	14.00
	-22.00	219.00	-24.00	0.00	-65.00	-7.00	13.00
	-29.00	195.00	-28.00	-40.00	-83.00	-18.00	20.00
	-30.00	215.00	15.00	-25.00	-72.00	3.00	18.00
	-25.00	224.00	92.00	-135.00	-74.00	-11.00	10.00
	-8.00	187.00	148.00	-162.00	-5.00	-19.00	-13.00
	1.00	93.00	130.00	-96.00	66.00	49.00	-15.00
	11.00	-49.00	39.00	-58.00	102.00	85.00	-23.00
	15.00	-131.00	-115.00	-72.00	77.00	42.00	39.00
	2.00	-183.00	-188.00	-94.00	33.00	25.00	50.00
	-7.00	-196.00	-135.00	-80.00	3.00	-3.00	29.00
	3.00	-178.00	-105.00	-50.00	23.00	-22.00	-6.00
	17.00	-171.00	-64.00	-59.00	80.00	39.00	-26.00
	24.00	-163.00	0.00	88.00	68.00	34.00	-22.00
	6.00	-99.00	76.00	147.00	76.00	79.00	-24.00
	6.00	-35.00	130.00	176.00	58.00	45.00	-20.00
	13.00	62.00	104.00	206.00	-12.00	-4.00	15.00
	4.00	114.00	54.00	133.00	-30.00	-35.00	31.00
	-2.00	186.00	-11.00	36.00	23.00	8.00	8.00
	-1.00	144.00	-87.00	-11.00	57.00	33.00	37.00
	8.00	81.00	-76.00	-48.00	-46.00	28.00	24.00
	10.00	14.00	-70.00	-87.00	-38.00	31.00	8.00
	8.00	-58.00	-64.00	-90.00	-43.00	-24.00	13.00
	9.00	-104.00	-60.00	-16.00	-12.00	-5.00	0.00
	-1.00	-118.00	-34.00	69.00	36.00	-25.00	-18.00
	-20.00	-124.00	49.00	116.00	-7.00	-22.00	-42.00
	-24.00	-122.00	80.00	112.00	0.00	-7.00	-41.00
	-12.00	-82.00	63.00	79.00	-5.00	-95.00	-28.00
	-3.00	-8.00	94.00	76.00	71.00	-39.00	-18.00
	-2.00	30.00	98.00	48.00	179.00	102.00	-11.00
	-17.00	56.00	1.00	-49.00	184.00	134.00	42.00
